# .PCD v0.7 - Point Cloud Data file format
VERSION 0.7
FIELDS x y z
SIZE 4 4 4
TYPE F F F
COUNT 1 1 1
WIDTH 1462
HEIGHT 1
VIEWPOINT 0 0 0 1 0 0 0
POINTS 1462
DATA ascii
0.00458045 0.0326008 0.159199
0.0875081 -0.0145033 0.439037
0.0276061 -0.0124111 0.162339
-0.0893771 0.228361 0.7411
-0.493248 0.0518101 1.16752
0.118838 0.0229409 0.336485
0.101257 -0.0283415 0.351204
0.164823 0.0894082 0.473601
-0.399129 -0.00930138 0.935572
-0.480334 0.0111501 0.990502
0.196914 -0.100249 0.562119
-0.532743 -0.0171095 1.12877
0.104101 0.00929811 0.377059
0.0480709 -0.013788 0.173347
0.0422831 0.319932 1.53237
0.0135888 0.0431873 0.209349
0.0437176 -0.0150736 0.262483
0.0356417 -0.00622501 0.183257
0.157407 0.06407 1.03255
0.159857 0.0219136 0.486136
0.132692 0.0199544 0.380088
0.108976 -0.154452 0.529878
0.115347 0.0328396 0.330272
-0.0894265 0.215114 0.742087
-0.364527 0.133121 0.919325
0.0107758 0.0330001 0.160216
0.177321 -0.126113 0.540106
0.285803 0.259091 1.29865
-0.52169 0.0180119 1.16837
-0.0482897 0.0190888 0.700372
-0.255579 0.0025233 1.04771
0.192829 -0.0992562 0.556332
0.184878 0.208163 0.971961
0.105571 0.0721833 0.503671
0.00424884 0.205645 0.748355
-0.282579 0.196518 0.841562
-0.412214 -0.011814 1.033
0.120809 -0.0599887 0.448006
-0.229985 0.0557047 0.659919
-0.841814 -0.0194519 1.76935
-0.308379 -0.269454 0.864367
-0.421637 0.287403 0.929452
-0.406395 0.153908 1.16212
0.135451 -0.00291651 0.407716
-0.512145 -0.0045925 1.09672
0.228297 -0.129535 0.562397
0.176745 0.0404703 0.446106
0.0721416 0.0805478 0.438544
0.016488 0.0142132 0.693291
0.0505427 -0.0139678 0.158134
0.136672 0.0671968 0.541231
-0.009247 0.194933 0.768216
-0.239849 0.0489685 0.969254
-0.173341 -0.0493773 0.922583
0.0497603 0.0151867 0.269235
-0.377993 -0.00909456 1.01631
-0.523533 0.00846443 1.08149
0.0209119 -0.393436 1.05509
-0.254509 0.0168319 0.880839
-0.283987 0.262287 0.838255
-0.544402 0.0175302 1.20868
0.22856 0.130528 1.18983
-0.202656 0.0380978 0.862568
0.117688 0.0197223 0.335843
0.0827231 -0.0194636 0.264689
0.038196 -0.016298 0.147655
0.0504872 -0.000379327 0.287534
0.0323099 0.000398926 0.169439
-0.0702911 0.227721 0.727182
-0.326525 0.0788445 0.954862
-0.36929 0.165166 1.0895
-0.385855 0.148795 1.11304
0.0418605 -0.0115787 0.142535
0.323539 -0.0523612 0.994227
-0.358928 0.132968 0.925908
-0.307274 0.150654 0.935952
-0.224639 0.00747139 0.495586
-0.0610655 0.2745 0.794024
-0.125449 0.0710335 0.779715
0.0346016 -0.00266565 0.131794
-0.286772 0.0364077 0.729491
0.0726309 0.0214625 0.204178
0.0407137 0.0039985 0.182046
0.224506 0.199226 1.16165
-0.152448 0.014567 0.847841
0.131752 -0.0293572 0.393745
0.417615 0.412234 1.34727
0.119722 0.0110351 0.400138
0.0393203 -0.00134864 0.143233
0.0767847 -0.0975257 0.33389
0.144205 0.0843928 0.760196
0.129595 0.0505779 0.828183
-0.460885 0.29552 1.02818
-0.405392 0.216966 0.811961
-0.303419 0.224462 1.12561
-0.0581537 -0.165382 0.874763
-0.414709 -0.0365429 0.959707
0.019005 -0.00915415 0.113867
0.0533559 -0.0232322 0.302119
-0.402262 0.237205 0.830915
-0.542532 0.0171345 1.19729
-0.23654 -0.00477151 0.487836
-0.345629 0.152382 1.06616
-0.254971 0.153954 0.91382
-0.346495 0.0895408 0.959656
0.0331116 0.0818628 0.309271
0.0268504 0.0389001 0.156899
0.0955248 0.0323479 0.714041
0.0892555 0.0849119 0.79766
0.0292547 -0.0110932 0.103147
0.0485953 0.0116491 0.261012
-0.0850096 0.0144139 0.726032
-0.14229 0.0142557 0.868919
-0.302375 0.13613 0.892665
-0.325457 0.0711312 0.912862
0.178208 -0.0859451 0.714087
0.0970254 -0.022517 0.306172
0.111165 0.0543529 0.36018
0.0537222 -0.0238062 0.191999
-0.431292 0.0765823 0.885524
-0.0523648 -0.205473 0.677784
0.205274 -0.0795323 0.460248
0.0345244 -0.165439 0.55086
-0.0912183 0.228179 0.679204
-0.0936551 0.348351 1.00364
-0.266075 0.149139 0.976318
-0.469548 -0.00474695 0.978499
-0.288881 0.0691096 0.8421
0.0335154 0.0484494 0.195531
0.0465233 0.00588938 0.199193
0.190367 -0.115183 0.513435
0.0305931 0.0159065 0.764361
-0.0968791 0.0082551 0.803051
0.337978 0.293869 0.976581
-0.293306 0.127814 0.901198
0.092036 -0.00574688 0.699516
-0.409366 0.243968 0.849762
0.0280246 -0.00736321 0.0959119
0.0298803 -0.0108842 0.180098
0.0773664 0.0228205 0.766932
-0.0175078 0.044354 0.821128
-0.447121 0.0151107 0.981632
0.0269854 0.0397861 0.159292
0.0041966 0.0587839 0.27834
0.0438811 -0.0207613 0.175677
0.0683811 -0.147812 0.387696
-0.0536314 -0.0094487 0.819275
0.0467583 -0.0127006 0.146581
0.0787594 0.0239175 0.69335
-0.463393 0.0837513 0.951314
0.0584773 -0.00263257 0.335017
0.0373437 -0.00393189 0.158353
-0.261566 0.19044 0.96833
-0.288782 0.069572 0.838985
-0.382529 0.145475 0.998174
-0.128245 0.048932 0.3164
-0.359979 0.296397 0.873119
-0.311214 0.00932514 0.585663
0.104042 0.286205 0.770843
-0.0147756 0.0339375 0.77636
0.0323936 -0.00138314 0.186929
0.0282044 -0.0027671 0.146813
0.0291422 0.0796217 0.307121
-0.311736 0.0950419 0.86877
0.0565723 -0.122581 0.398004
0.146743 -0.0869481 0.476063
-0.0834611 -0.0134686 0.872397
-0.329531 0.081716 0.907759
0.134872 0.195241 0.612659
-0.16883 -0.178576 0.908422
-0.536894 -0.489359 1.25597
-0.481567 0.014214 0.915359
-0.539354 0.0346972 1.22651
-0.0811949 0.213958 0.633945
-0.289527 0.0377037 0.732602
0.112027 0.0810171 0.510438
0.104353 -0.286879 0.882813
0.192494 -0.0713402 0.416064
0.156727 0.0995999 0.449199
-0.348737 0.00216084 0.909898
0.0977169 -0.00716244 0.307115
0.243345 -0.0112842 0.753802
-0.180205 0.0308092 1.04083
-0.526599 -0.0181362 1.10123
-0.336569 -0.0796839 0.6942
-0.346387 0.00302326 0.903573
-0.169711 -0.191959 0.492387
0.148081 0.0731542 0.394511
0.075796 -0.0175547 0.231846
0.0510649 0.218828 0.786988
0.213732 0.159289 0.559371
0.192171 0.14784 0.508281
-0.464988 0.279857 1.07118
-0.273406 0.154483 0.995166
-0.0467561 -0.215003 0.701955
-0.223545 0.00450438 0.642998
0.105923 0.0470604 0.310816
-0.121414 0.00990938 0.775365
0.0490199 -0.0251904 0.172744
-0.199951 -0.0518286 0.930329
-0.285694 -0.10715 0.623313
0.160718 0.0550865 0.478691
0.0642404 -0.0158562 0.202121
0.0961671 0.00135193 0.302524
0.029093 0.315082 1.49923
-0.412922 0.17037 1.00624
0.0268913 -0.00897534 0.168638
-0.410237 -0.116931 0.858368
0.189741 0.193223 0.62051
0.104383 0.0665673 0.466431
0.108695 0.0977766 0.609996
0.0898629 0.0153331 0.308522
0.097879 0.00919527 0.330638
-0.378061 0.139822 0.967459
-0.476265 0.0142682 0.910985
-0.43843 0.263832 1.00266
-0.247795 -0.392266 1.05342
0.0348485 -0.0165116 0.126911
0.166782 0.0927019 0.736539
0.0981366 0.0563244 0.460546
0.182746 0.0993713 0.495225
0.029462 -0.0111776 0.104003
0.0844675 0.119443 0.713753
0.0114969 0.100987 0.544929
-0.149188 -0.00345021 0.888494
-0.312239 -0.11652 0.687276
-0.467618 0.0309774 1.0123
-0.296575 -0.103856 0.622785
-0.381707 0.217978 0.779922
-0.0119215 0.182096 0.711981
-0.372924 0.0910043 0.769978
0.250811 -0.102778 0.59393
0.0871388 -0.00335919 0.517429
-0.31832 -0.121912 0.694145
-0.0820837 -0.263414 0.870806
0.0251764 -0.00548537 0.158102
0.0182556 0.0533795 0.27093
0.119103 0.0513767 0.348308
0.063646 -0.000329579 0.214136
-0.382192 0.00542536 0.863177
0.126177 -0.217174 0.728947
-0.23603 -0.370191 0.998522
-0.266444 0.157693 0.978714
0.143011 0.0744519 0.440059
0.170683 0.0650031 0.553624
-0.410669 -0.138314 0.943754
0.115465 -0.161606 0.555714
-0.0486015 0.16327 0.517604
-0.286866 -0.135036 0.564173
-0.278502 -0.0542872 0.535708
-0.345197 -0.163658 0.690132
-0.280846 0.189175 1.02062
0.0574971 0.00230914 0.195031
0.962433 -0.24102 2.87614
0.104559 0.11265 0.583374
0.0541456 -0.0191702 0.322249
0.0826904 0.0336891 0.751102
-0.228761 -0.0895292 0.447015
-0.465863 0.0122564 0.877556
-0.414673 0.271228 0.790554
-0.4002 -0.170152 0.786645
-0.0926815 0.261922 0.840989
-0.122384 0.0761942 0.866616
0.170375 0.115688 0.829711
-0.34139 -0.0228326 0.946314
0.135336 0.00182226 0.689598
-0.216914 -0.107507 0.460866
-0.145568 0.240268 0.680849
-0.117645 0.268571 0.74447
0.2984 0.0911367 0.781496
0.0624042 -0.0143893 0.192191
-0.168499 0.00231517 0.361873
-0.228625 0.0520851 0.90919
-0.197654 0.133827 0.715739
-0.0431653 0.0232119 0.797943
0.118945 -0.0138725 0.383713
0.115001 0.0797115 0.641414
0.044982 -0.0165318 0.273807
-0.273942 -0.157901 0.996045
-0.394019 0.254372 0.868978
0.0990456 0.0481032 0.434002
0.0682418 -0.0337311 0.253036
-0.470073 -0.0813756 0.921638
-0.222756 0.166 0.746214
-0.47945 -0.0895198 0.935584
-0.52067 0.0354812 1.1809
-0.489423 0.0131807 0.922689
0.0858713 0.0354084 0.328663
0.0236212 0.042567 0.411311
-0.0438044 0.0244536 0.853204
-0.469325 0.0788848 0.975982
-0.481663 0.178117 1.00565
-0.306995 -0.0101415 0.947814
-0.294493 0.0102235 0.849716
0.132589 0.0862907 0.406135
0.102762 0.0892278 0.562398
-0.280043 0.0133448 0.897232
0.0570673 0.0205945 0.690606
-0.349863 0.185824 0.684957
0.173612 0.0217535 0.48056
-0.128266 0.0335099 0.810245
-0.299088 -0.0220723 0.899227
-0.164803 -0.066382 0.900618
-0.220862 -0.293799 1.00526
-0.60831 -0.441996 1.17077
-0.277832 0.203153 0.92557
-0.351495 0.284933 0.842409
-0.205601 0.037577 0.887435
-0.261843 0.0395768 0.892567
-0.260122 -0.0387519 0.928858
-0.018273 0.0208786 0.781147
-0.177712 0.0202941 1.01132
-0.303602 0.0166583 0.928103
-0.123231 0.0454842 0.791888
0.0967179 0.0627398 0.432986
-0.111477 0.0345277 0.812179
-0.0993895 0.068691 0.782736
-0.388771 0.292554 0.894821
-0.196494 -0.158827 0.948772
-0.33534 0.15933 0.99576
0.1021 0.0920854 0.574552
0.152341 0.0434737 0.391738
-0.112553 0.000935108 0.83561
0.128206 0.108505 0.686738
-0.149296 0.0217967 1.01128
-0.314701 0.00377033 0.984718
-0.281269 0.0134162 0.907505
-0.091958 -0.00643579 0.857763
-0.223221 0.0379956 0.893743
-0.43884 0.258982 0.990785
-0.433087 0.26567 1.02347
-0.448544 0.279367 1.0282
-0.370384 0.227966 0.763149
-0.00911312 0.000691803 0.772684
-0.0804874 0.00693742 0.842243
-0.116653 0.0467921 0.817166
-0.265359 0.0257556 0.961346
-0.286887 -0.00904106 0.89549
-0.409921 0.242917 0.884622
0.213344 0.137822 1.14369
-0.29177 -0.34249 0.873272
-0.197314 -0.263893 0.899313
0.0609271 0.0295777 0.679484
-0.102879 0.172725 0.873797
-0.388383 -0.109892 0.848224
-0.321705 -0.422928 1.0969
-0.253618 -0.335848 1.10143
-0.325479 0.239118 1.08313
-0.227463 0.0515822 0.906374
0.151423 0.120833 0.765168
0.509461 0.353461 2.6269
-0.330595 0.00477116 1.02407
0.169396 -0.17269 0.494091
-0.0580022 -0.165969 0.874869
-0.413211 -0.15256 0.743469
-0.483316 -0.0799933 0.942081
-0.386851 -0.575284 1.48842
-0.407338 -0.419358 1.10766
-0.435651 0.283095 0.970835
-0.204407 0.00172576 0.859298
-0.332559 0.0993956 0.922681
0.0680877 0.00583002 0.657649
-0.137467 -0.00715302 0.861113
0.183952 -0.194116 0.540652
-0.0385134 0.00690531 0.779929
-0.00945745 0.08017 0.681858
0.0462559 0.016806 0.798198
-0.0413454 0.0153338 0.793927
-0.121887 -0.00972765 0.887745
0.166571 -0.0282242 0.442662
-0.150812 -0.0996454 0.878443
-0.154484 -0.156069 0.918646
-0.161092 0.23251 0.858526
-0.196845 -0.0486779 0.998183
-0.33216 0.100295 0.920994
-0.354533 0.0107274 0.845373
-0.131349 -0.00483811 0.902332
-0.128725 0.00689265 0.868924
-0.038847 0.00660086 0.794131
0.09254 -0.165251 0.552893
0.015522 -0.00868528 0.75167
0.0385756 -0.212067 0.563593
-0.248061 -0.0306237 0.911571
0.096774 0.0336859 0.728286
-0.442937 0.029604 1.00134
-0.127857 -0.129309 0.878691
0.0642874 0.0219477 0.742885
-0.0454018 0.00168054 0.784258
0.130924 0.08285 0.706722
-0.152426 -0.159054 0.871742
-0.317719 0.150425 0.941481
-0.165684 -0.067429 0.911284
-0.494134 -0.268756 0.936337
0.11333 0.0271587 0.30328
0.123461 -0.0265519 0.364355
-0.321378 -0.131706 0.673417
0.0807072 0.00255718 0.272912
-0.278787 -0.0945913 0.563354
0.0972945 0.0185532 0.301875
-0.0104839 0.0926562 0.689333
0.0395608 0.228642 0.750944
-0.00856845 0.0182358 0.631941
0.130054 0.0420372 0.335773
0.210867 -0.203178 0.581266
-0.201611 -0.0018759 0.909394
-0.132583 0.0591272 0.822865
0.0668073 0.0051857 0.663702
-0.196389 -0.0479607 0.918829
-0.188952 -0.153993 0.9162
-0.449608 -0.222394 0.996689
-0.621977 -0.38822 1.21524
0.0777733 -0.158724 0.531463
0.0902142 0.0138142 0.30493
-0.298042 -0.115591 0.589246
0.299371 0.0637163 0.835383
0.103671 0.00926572 0.320144
0.080962 0.0317924 0.263062
0.0886575 0.0191259 0.319988
-0.096446 0.00846363 0.850725
-0.410972 0.205199 0.985911
-0.390621 -0.146523 0.729758
-0.308613 -0.11385 0.681048
-0.463269 -0.263378 1.00187
-0.193266 -0.270227 0.881542
-0.158375 -0.0224239 0.892794
-0.113035 -0.00442797 0.681164
-0.344355 0.0325479 0.919526
-0.408444 0.0972767 1.07949
0.166187 -0.00176516 0.500025
0.136786 0.0645155 0.49408
0.10229 0.0091776 0.303706
0.267383 0.184895 1.30126
0.0552484 0.010239 0.292657
-0.347307 -0.144813 0.674225
-0.395381 -0.240726 0.832877
0.132477 -0.0186357 0.424674
0.077654 0.0306214 0.642776
-0.0149 0.0311244 0.718426
-0.280475 -0.149753 0.988244
-0.221018 -0.098516 0.428877
-0.369715 -0.140805 0.832548
-0.371719 -0.184502 0.811455
-0.429154 0.224128 0.857269
-0.293042 -0.0126918 0.948721
-0.402075 -0.0138451 0.963922
-0.36748 0.207285 0.738323
-0.297872 -0.107613 0.61117
-0.362465 -0.150045 0.805568
-0.307879 -0.128315 0.601305
0.0642835 0.0192304 0.599533
-0.434147 -0.105729 0.927369
-0.192882 -0.135858 0.91284
-0.350912 -0.146791 0.755914
-0.00947332 -0.100711 0.55318
-0.333421 -0.0215878 0.752417
0.217388 0.0195321 0.715094
-0.199852 -0.0636133 0.400606
0.0761059 -0.00260616 0.229641
-0.315341 0.0110214 0.907491
-0.177152 -0.0692775 0.366307
-0.212058 -0.00598813 0.93015
-0.324586 -0.114653 0.601907
-0.245845 -0.0801941 0.443875
-0.11076 0.0172084 0.800682
-0.18777 0.124766 0.656527
0.0537678 -0.205331 0.59611
-0.350536 -0.00322595 0.896393
-0.332087 -0.139046 0.653543
-0.0991586 -0.186476 0.843539
0.153285 -0.0864715 0.379683
-0.347314 0.163522 1.02878
0.125238 0.246637 0.723054
0.086814 0.259556 0.729394
0.114986 -0.15522 0.494282
-0.267961 -0.0420736 0.952484
0.21506 0.156259 0.544748
0.170636 0.123572 0.528817
0.0772807 0.101107 0.41787
0.0755129 -0.112137 0.303355
-0.151435 -0.158589 0.863268
-0.257371 -0.0366326 0.926187
0.168982 -0.222124 0.565178
-0.389721 -0.322019 0.784612
0.0451902 0.241029 0.685471
0.136634 0.0534296 0.363547
-0.22062 0.0388419 0.877547
0.138407 0.101987 0.423724
0.0763227 -0.108572 0.300364
-0.077106 0.228246 0.918258
-0.016916 0.0221638 0.785361
-0.056235 -0.0268817 0.825124
0.026026 -0.0209294 0.700758
-0.471089 0.243763 0.818722
0.125154 0.072234 0.426037
0.0941859 0.115324 0.480087
-0.398155 -0.327576 1.04578
-0.47964 -0.303559 1.03469
0.00487216 -0.203549 0.541728
0.150462 0.0694345 0.418322
0.217097 0.0924404 0.557491
0.185518 0.146066 0.491898
-0.455842 0.227853 0.805552
0.0442726 -0.0893912 0.312665
0.107383 0.0223859 0.312145
-0.192314 -0.223539 0.881794
0.0775175 -0.112208 0.306795
0.0694916 -0.121661 0.309218
0.0370588 0.177078 0.628937
0.172078 -0.1109 0.648081
0.102357 -0.0375552 0.347823
0.121039 0.0631984 0.607689
0.0425009 -0.191795 0.601611
-0.0943719 -0.253802 0.919283
0.0705996 -0.00354724 0.259792
0.0914295 0.00384744 0.310566
-0.143298 0.0567685 0.845742
-0.276203 0.202763 1.00746
-0.302973 -0.011418 0.8298
0.117379 0.0376969 0.363496
0.147942 0.0566295 0.545999
0.0541458 -0.00695479 0.703893
-0.25798 0.0207505 0.884321
-0.315533 -0.162008 1.08645
-0.300083 0.0379713 1.04188
-0.367416 -0.298728 0.944279
-0.347573 -0.154498 0.768328
-0.109311 -0.118266 0.884791
-0.0433232 0.0372445 0.905792
0.0331137 -0.166418 0.480574
-0.144167 0.0557129 0.863539
-0.321576 -0.163911 0.654653
0.106321 -0.0696742 0.405578
-0.283844 -0.1449 0.978758
0.0880965 -0.0542912 0.490164
-0.183915 -0.187475 0.847097
-0.0298775 0.0114305 0.870828
0.142225 0.0925555 0.436684
0.0258046 -0.0134483 0.093312
-0.128575 0.0976389 0.998705
-0.615543 -0.385313 1.20844
-0.0932568 -0.185635 0.752913
-0.456864 -0.224469 0.99897
0.0660796 -0.00256971 0.238895
0.0895919 0.048391 0.432769
0.110692 0.0144912 0.308792
0.0643146 -0.0190974 0.202821
0.077431 0.0231915 0.731814
0.0117689 -0.010645 0.748724
-0.423125 -0.243894 0.910699
0.0956568 -0.00262103 0.283771
-0.269807 -0.343897 1.123
-0.0552886 -0.162548 0.87043
-0.179221 -0.208374 1.00485
-0.285191 -0.011958 0.93371
-0.340645 0.0315649 0.913129
0.0802512 -0.00338651 0.258294
0.0744834 -0.000368283 0.249037
-0.0480333 0.0223988 0.772767
0.0602812 0.00843077 0.24333
0.132191 0.0180995 0.641729
0.124755 0.0826962 0.660221
-0.121598 0.0597911 0.88067
-0.0815832 -0.230044 0.821972
-0.194233 -0.26112 0.896232
0.0878068 -0.24436 0.754669
0.106311 0.00371012 0.320955
0.101612 -0.0622634 0.334683
-0.132286 0.00806671 0.892223
-0.299839 0.193352 1.06592
-0.384105 -0.132822 0.873744
0.0924194 -0.00792322 0.574046
-0.199437 -0.0843952 0.393315
-0.123721 -0.0166311 0.884467
-0.360389 0.260505 1.18655
0.0743503 -0.10668 0.293397
-0.108928 0.24451 0.782262
0.204353 0.188818 0.605463
0.0871376 -0.113311 0.357465
0.120428 -0.0249268 0.348803
0.040855 0.182178 0.6516
0.0149016 -0.46834 1.17816
0.00906505 0.187258 0.686611
-0.571202 -0.35168 1.10938
-0.0137057 0.187327 0.727989
-0.410697 0.297045 0.77019
0.130127 0.0506204 0.355194
0.104598 0.000464909 0.333977
0.101795 0.0351777 0.283688
0.119577 0.0395229 0.317881
0.102194 0.0189294 0.314553
0.129316 0.0560363 0.33522
0.103609 0.00139946 0.334583
-0.0748648 -0.306259 0.664363
-0.0951609 0.0199239 0.788957
-0.0470584 -0.251939 0.696369
-0.323163 -0.0273717 0.855528
0.160321 -0.102513 0.381699
0.178426 0.0603532 0.493948
0.101619 0.0158637 0.402309
0.109513 0.0217128 0.402015
0.0969005 -0.254128 0.768239
-0.0248227 0.0113637 0.810342
-0.142963 0.0886035 0.874021
-0.0899461 -0.117557 0.844844
-0.0624401 0.186297 0.924357
-0.31892 0.229328 1.04099
-0.279692 0.157452 1.01839
-0.209014 -0.133485 0.976742
0.100257 0.0199346 0.616525
-0.476654 0.0167571 1.05996
-0.544851 -0.315495 1.10436
-0.34569 0.0439425 1.22092
0.150012 -0.152301 0.454637
0.145056 -0.11317 0.449831
-0.298585 -0.0131478 0.970767
-0.348028 0.0306792 0.92637
0.2172 -0.107255 0.611727
-0.0103558 0.0969825 0.707669
-0.30878 -0.00703192 1.38032
-0.192368 -0.0149969 0.898281
-0.348451 0.103071 0.971033
0.239336 -0.0928299 0.54318
0.11559 0.0188546 0.314237
-0.253379 0.147688 0.878279
-0.0327045 0.00749097 0.762328
0.0663131 -0.147257 0.465446
0.0850056 0.25895 0.718894
-0.0114873 0.0267643 0.0226193
0.101944 0.0244268 0.312088
0.0351585 -0.222387 0.504101
-0.190329 -0.0210935 0.941339
-0.09827 -0.0509313 0.86502
-0.260774 -0.39594 1.06541
-0.282215 -0.375674 1.30178
-0.0505138 -0.210517 0.692527
0.00546835 -0.202646 0.512802
0.071628 -0.0822534 0.288116
0.0746447 -0.116499 0.284908
0.0487112 -0.379408 0.935826
-0.108998 0.0236954 0.849432
0.0139723 -0.00947253 0.764791
-0.0759122 -0.00399999 0.79483
-0.305044 -0.174424 1.09977
-0.270844 0.335118 0.824424
-0.505192 -0.441833 1.13297
0.116744 0.00844024 0.314327
0.0630644 -0.168543 0.43979
-0.425855 -0.266259 0.911524
0.128163 0.0367876 0.442174
0.0540753 0.0260579 0.681562
0.163318 -0.112981 0.436643
0.142243 -0.148502 0.4303
0.0935987 0.0548701 0.444837
-0.0564248 -0.15853 0.840174
-0.141516 0.0113688 0.924675
0.168973 0.0271638 0.457303
0.0542992 0.0278429 0.647211
-0.1388 0.0715904 0.782506
-0.296576 0.010044 0.861299
-0.206406 0.00277693 0.859357
-0.276707 -0.143414 0.958893
-0.415938 0.260742 1.26125
-0.417457 0.265246 1.25864
-0.51937 0.26261 1.23223
0.180987 0.0948238 0.535193
0.111272 0.0499272 0.541842
-0.350861 0.225652 0.781172
-0.463838 -0.129083 1.00896
0.182666 0.045945 0.480587
-0.182237 -0.0510641 0.937343
-0.101551 -0.0978261 0.868845
-0.114989 -0.0391176 0.839117
-0.102465 -0.00738456 0.838328
-0.0806795 -0.00448761 0.857827
-0.261768 0.0131597 0.843236
-0.14756 -0.00838266 0.869833
-0.391445 -0.222596 0.793784
-0.441129 -0.164419 0.837136
0.0269142 0.00119087 0.848186
-0.248775 0.148155 0.886757
-0.404021 0.135334 0.875144
0.158732 -0.100157 0.582549
-0.336916 0.0304351 0.875383
-0.130264 0.188008 0.878816
0.14557 -0.190738 0.604279
0.161881 0.228251 0.680793
0.0553342 -0.296303 0.78463
0.106523 -0.0227828 0.31555
-0.045094 0.00168764 0.771552
0.162417 -0.157695 0.489847
0.152854 0.291309 0.804643
-0.278014 0.188013 0.843601
-0.0439632 -0.0301697 0.786386
0.0209137 -0.142506 0.48126
0.157209 0.285129 0.792306
0.0870783 0.269371 0.761619
-0.158361 0.0307848 0.955077
0.149143 -0.163185 0.520855
-0.0904077 -0.0528018 0.884523
0.193987 0.263457 0.771225
0.022256 0.0230509 0.83097
-0.000134717 -0.00754462 0.784682
-0.1893 -0.165364 0.900663
0.292553 0.406857 1.22153
0.0974545 -0.229489 0.734386
-0.12178 -0.0184614 0.878203
0.125804 0.0829527 0.374569
0.0637067 -0.0140477 0.256893
0.0848455 0.0403263 0.294035
0.0658265 0.0995803 0.360607
0.0786229 -0.0110281 0.274597
0.104306 0.154815 0.525026
0.0643033 -0.00691904 0.242748
0.0909321 0.0287773 0.300966
0.13116 0.0631401 0.349724
0.109811 0.0334998 0.361746
0.0603303 -0.0228046 0.200852
0.102047 0.0205208 0.322232
0.0712904 0.103888 0.369939
0.063311 -0.0185941 0.218158
0.10034 0.0334329 0.32684
0.105629 0.0357401 0.3643
0.159002 0.0809708 0.526758
0.117358 0.0249055 0.358188
0.133099 0.00719988 0.359299
0.0985803 0.0323271 0.314317
0.0975067 0.0144703 0.300576
0.0942221 0.00596595 0.327047
0.0930709 0.0531616 0.411405
0.0360616 -0.174504 0.537049
0.158452 0.0861035 0.411921
0.103118 -0.0107067 0.322024
0.0404777 0.0661869 0.647531
0.00705838 0.00716925 0.043754
0.130621 0.0492062 0.352612
0.0990606 0.0267118 0.347115
0.072904 0.0314732 0.684978
-0.097947 0.189044 0.605533
0.0739448 -0.115304 0.281919
-0.0156522 -0.241358 0.603484
-0.349438 0.15861 1.08713
0.135889 0.0634997 0.348569
0.0871207 -0.0928658 0.522536
-0.171872 -0.0496132 0.900825
-0.0966924 -0.145677 0.860163
-0.189004 -0.0229342 0.941355
0.200609 -0.12312 0.5176
-0.0462636 0.0487546 1.04233
-0.162537 0.00780399 0.902646
-0.378896 -0.429807 1.10765
0.117078 0.0875042 0.684418
0.054061 -0.00825395 0.725975
-0.0537697 -0.27617 0.758559
-0.330832 -0.0757689 0.6795
-0.0939614 0.00102295 0.92928
-0.043303 0.0134107 0.800545
-0.0464455 0.022327 0.804975
-0.478308 -0.0824469 0.929992
0.0796235 -0.0859822 0.487493
-0.302812 0.149922 0.934198
-0.121972 0.0368803 0.819433
-0.317195 0.0963318 0.893278
-0.286364 0.0401871 0.740245
0.318072 -0.204319 0.818858
-0.126883 -0.252909 1.02413
0.199978 -0.130464 0.479036
-0.244279 -0.360109 1.13996
-0.43925 0.0968712 1.16829
0.259909 0.126917 0.695736
0.0861581 0.0574071 0.685632
0.104565 -0.213359 0.688055
0.0216796 -0.197921 0.467435
0.170254 -0.214974 0.732819
0.0905445 0.0548895 0.445296
0.0985822 0.0178545 0.324962
0.0835846 0.0090552 0.30929
0.0968721 0.228372 0.636668
0.0933892 0.0216389 0.331432
0.107227 0.0297779 0.395423
-0.00322254 -0.00173821 0.816276
-0.234776 -0.00877553 0.781971
-0.356928 -0.16959 0.712763
0.0929703 0.0334242 0.429694
0.0930877 0.0298654 0.359204
0.0969527 0.0424746 0.382419
0.0934268 0.0233803 0.312544
0.0841489 0.0171275 0.302715
0.0956222 0.0420837 0.350334
0.0878994 0.0366227 0.423727
0.107202 0.0683937 0.480722
0.0967123 0.0395776 0.39322
0.0928361 0.0301543 0.366373
0.132284 0.0699515 0.357435
0.0868824 0.0191455 0.301007
0.0993462 0.0259128 0.328194
0.091095 0.0329615 0.418113
0.0996331 0.0489333 0.437233
-0.147786 0.238372 0.679749
0.0920414 0.216864 0.607775
0.095116 0.00780779 0.320641
0.0900833 0.0359449 0.429414
0.0626698 -0.144682 0.479985
-0.0561881 -0.0258617 0.826492
0.122237 -0.127337 0.405651
-0.282595 -0.43471 1.35955
0.106854 -0.107402 0.321351
0.143224 -0.0276651 0.404469
-0.110755 0.161221 0.721415
0.0765388 -0.0805517 0.265832
-0.169085 -0.18582 0.934508
0.256976 0.0620407 0.648955
-0.496269 0.0890206 1.02474
0.0643091 0.0633844 0.602475
0.148534 -0.0272803 0.388153
0.0978678 0.0688527 0.478456
-0.039013 0.0402315 0.840612
0.0663212 0.0246024 0.797946
-0.32521 -0.128348 0.646682
0.128395 -0.114633 0.387618
0.197419 -0.14794 0.609185
0.161213 -0.100401 0.439371
0.0862682 0.0249638 0.581104
-0.190866 -0.327626 0.893143
0.00294162 0.180024 0.650658
-0.156644 0.0161381 0.875899
0.105785 0.00193337 0.612005
0.0798058 -0.141433 0.481792
-0.286005 0.266661 0.854373
0.023202 0.126089 0.745217
-0.342454 -0.41793 1.09592
0.0701489 0.0216887 0.678703
0.341119 -0.31841 1.04317
0.214592 -0.123077 0.575699
-0.396129 -0.115876 0.840598
-0.435085 -0.0121204 1.00812
-0.00803875 0.0819106 0.716365
0.136357 -0.18499 0.588315
-0.275809 0.0668833 0.802437
-0.146826 -0.0143365 0.822789
-0.0425038 0.00912577 0.680169
-0.292097 0.300684 0.887636
-0.198291 -0.127377 0.923347
-0.350424 -0.362093 0.968157
-0.0294303 0.0241732 0.803479
-0.144206 -0.0163026 0.832663
-0.403933 -0.131234 0.881775
-0.0665246 0.205839 1.02982
-0.423269 0.276032 0.80581
0.127426 0.284009 0.803541
0.0818302 0.0521472 0.632308
-0.277375 0.0289293 0.652084
0.113319 -0.100278 0.363437
-0.124083 0.0381347 0.843484
-0.389657 0.249874 0.894377
-0.0936345 0.0658608 0.796366
0.13324 0.0712487 0.364413
0.112231 0.0285231 0.333137
0.105383 0.0115829 0.355314
0.0950112 0.0240966 0.328216
0.0902636 0.0106504 0.308661
0.0568356 -0.134417 0.444304
-0.45397 -0.0450147 1.06732
-0.0569274 -0.0298968 0.860224
-0.105631 0.0342844 0.777557
-0.331825 -0.284055 0.914659
0.206276 0.198874 0.658587
0.142443 0.0856112 0.3929
0.102475 0.0035219 0.320589
-0.0653111 0.242313 0.740359
0.138111 0.201881 0.630564
-0.10966 0.246523 0.749197
0.0429647 0.190686 0.685581
-0.275744 0.260534 0.777921
0.0681915 0.0139337 0.241442
0.116489 0.0348809 0.319844
0.0834389 0.25396 0.700532
0.122073 0.0390379 0.333217
0.128138 0.0263611 0.371097
-0.252601 -0.328269 1.05949
0.0470094 0.203053 0.735111
0.0826331 0.026506 0.5689
0.0731023 -0.0877811 0.218847
-0.376125 -0.320581 1.03423
0.0855443 -0.0973693 0.308914
-0.00734046 0.0603456 0.503525
0.0847319 -0.105756 0.341033
0.0421207 0.188595 0.674417
0.10585 -0.24445 0.808901
0.0981187 0.0377412 0.325496
0.10149 0.0570212 0.366321
0.0331493 -0.247327 0.580857
0.158457 0.0888358 0.415732
0.102577 -0.0255536 0.308783
-0.0468851 -0.174824 0.582866
0.160684 -0.0389106 0.470656
-0.0679313 0.20805 1.03682
0.148726 0.00384115 0.397895
0.0435716 0.20644 0.633639
0.178724 0.140676 0.473603
-0.428639 0.221657 0.732041
-0.110928 0.0743487 0.807235
-0.255439 0.0163927 0.906191
0.123657 0.0909299 0.381419
0.070597 -0.158486 0.494824
0.0390875 -0.199579 0.55558
-0.506855 -0.262542 0.895054
0.0723246 -0.121497 0.318307
0.534651 0.357642 2.14505
-0.430143 -0.147357 0.98169
-0.0813149 0.192536 0.640262
0.0383838 0.119508 0.59422
0.140522 0.034887 0.350894
0.121297 0.0577827 0.326549
0.0707061 -0.109471 0.269769
0.145989 0.0706136 0.39017
-0.36769 0.206982 0.748227
0.0160768 0.0122242 0.0602026
-0.0168317 0.0448162 0.825175
-0.173062 -0.17028 0.45454
0.12898 -0.165682 0.568533
-0.132626 0.175427 0.896416
-0.114968 -0.120572 0.929113
0.0856152 -0.0054224 0.603646
0.0871154 -0.0924476 0.253727
-0.0356485 0.164005 0.546929
0.0387141 -0.192704 0.55731
0.0370901 -0.150223 0.434256
0.0960441 -0.00606041 0.583692
0.137221 0.084015 0.373913
0.097964 0.0351181 0.313832
-0.00565249 -0.00784642 0.724363
0.0792896 -0.0873706 0.237938
0.0739541 -0.129179 0.329365
0.0504634 -0.00681545 0.70257
0.0143712 -0.301398 0.774146
0.105272 -0.019199 0.322199
-0.384804 0.220668 0.787235
0.0649325 -0.057365 0.207918
-0.198058 -0.0461909 0.920664
0.0338126 0.0530859 0.50467
0.00485891 -0.391427 1.03244
0.0901837 -0.183423 0.589829
0.0160161 -0.313657 0.851589
-0.135096 0.0628631 0.853017
0.127569 0.0710808 0.342042
0.0468688 -0.248569 0.656712
-0.330723 -0.00667384 0.878869
0.0550578 -0.173157 0.450915
0.0887988 -0.0844431 0.243195
-0.291389 0.278959 0.827331
0.0783626 -0.11008 0.306436
0.131142 0.0590355 0.350675
-0.337639 -0.0970147 0.725944
-0.152062 0.00184239 0.889532
-0.0954164 -0.196422 0.789405
-0.157617 0.162245 0.827707
-0.0338126 0.319659 0.846906
-0.488873 0.01511 1.08323
-0.30092 -0.022835 0.910965
-0.275763 -0.150956 0.950258
-0.110209 0.0332292 0.805638
0.0646656 0.0424987 0.361483
-0.35775 0.195925 0.709852
-0.187044 -0.162429 0.887366
0.131283 0.0115163 0.385388
0.118658 0.0301194 0.354064
0.0900534 0.0244947 0.316521
0.0866401 0.0282357 0.29069
0.10093 0.0258777 0.328506
0.106936 0.0284058 0.372512
0.108051 0.0454352 0.370044
0.103132 0.0365907 0.376719
0.0922677 0.00857383 0.305583
0.0919996 -0.00526488 0.317666
0.102965 -0.00218412 0.335581
0.0850267 0.00622766 0.309636
0.100395 0.0206956 0.317457
0.0987833 0.0404557 0.404885
0.111047 0.0550024 0.434287
0.12792 0.0636917 0.390307
-0.388463 0.168945 0.637926
0.0976247 0.0563504 0.432029
0.125126 0.00780976 0.339741
0.094695 0.0141929 0.3188
0.0638738 -0.104964 0.35626
-0.342627 -0.0802183 0.693355
-0.192927 -0.131783 0.904396
-0.259941 -0.368218 0.819368
-0.0029607 -0.00822223 0.755004
0.0446116 -0.16105 0.419013
-0.544677 -0.287342 0.917207
-0.675855 -0.348396 1.2155
0.0834938 -0.110674 0.380519
0.144793 0.0437953 0.365251
-0.507221 -0.449352 1.14198
0.0677347 -0.145275 0.456559
0.0688143 -0.160899 0.418428
0.0509095 -0.325109 0.893258
-0.104433 0.216089 0.685427
0.118603 0.0781525 0.365949
0.0149699 -0.0117024 0.707393
0.0493566 -0.162363 0.46519
-0.150087 0.236489 0.676966
0.103119 0.0402146 0.330864
-0.0960405 -0.30126 0.971852
0.0330537 -0.193776 0.488525
-0.453089 0.224479 0.798711
-0.137803 0.185545 0.932079
-0.00963317 0.11007 0.781322
-0.0480007 0.0339478 0.795161
-0.0453752 -0.00878335 0.838572
0.0731407 -0.11384 0.279934
-0.042934 -0.00895932 0.868877
0.0767387 -0.242588 0.702781
0.0697778 -0.122493 0.310527
0.111802 0.0497381 0.304691
-0.0157552 -0.248406 0.551613
-0.170158 0.257115 0.758966
-0.0641324 0.245671 0.749422
0.0518582 -0.121639 0.272629
-0.353937 0.284215 0.847996
0.0253989 0.0156244 0.775502
0.0655386 0.0151882 0.236633
-0.131493 0.073051 0.836047
0.178397 0.197514 0.62431
0.102324 0.0339939 0.282498
0.106821 0.0344332 0.319643
0.0938143 0.0240577 0.293429
0.195487 0.183071 0.582436
0.138193 0.0765717 0.37094
-0.498401 -0.258328 0.880658
-0.129365 0.0639925 0.902732
-0.089624 0.0676167 0.773393
-0.483981 -0.407606 0.981031
0.0626868 -0.135288 0.453913
-0.32949 -0.02274 0.908159
-0.0841657 -0.259093 0.845147
0.151836 -0.336827 1.11856
0.069582 0.105465 0.377226
-0.45217 0.224337 0.771605
-0.548442 -0.198671 1.0159
0.0840961 -0.00408441 0.267289
0.0826254 0.0121185 0.260476
0.0383493 0.210577 0.713457
0.117206 0.0612927 0.337404
0.0112748 -0.396501 0.995637
0.10654 0.0342677 0.317753
0.100418 -0.00724041 0.323935
0.118158 0.177584 0.599274
-0.0695145 -0.243666 0.66935
-0.40683 0.263312 0.766365
-0.0879642 -0.0511209 0.850146
0.0891975 -0.00583517 0.628292
-0.0638272 -0.276839 0.754883
0.0636806 -0.0364977 0.317825
0.0573121 -0.073654 0.167783
-0.273584 -0.301669 0.790684
-0.013767 0.0284755 0.790696
-0.0535573 -0.0288165 0.818137
-0.309701 -0.424776 1.09148
0.0267338 -0.214247 0.56728
0.0660837 0.00331565 0.690828
-0.0754247 0.00152294 0.824187
0.0840228 -0.0895054 0.510128
-0.312302 0.201234 1.10272
-0.0977127 -0.143979 0.84949
0.125413 0.0811475 0.38407
-0.145433 0.0736616 0.834098
0.0761469 -0.0805331 0.210374
-0.312596 -0.354505 0.915331
0.0640938 0.00488795 0.660797
0.105254 0.0091972 0.311688
0.0827385 -0.106339 0.257149
-0.0362842 0.100308 0.480853
-0.0723699 -0.312678 0.685249
0.22076 0.125659 0.699694
-0.125034 -0.0159187 0.875819
-0.165633 0.0759257 0.885983
0.0216798 -0.193458 0.505095
-0.0723518 0.00516911 0.831244
0.0783804 -0.0918898 0.241712
-0.129992 0.0604689 0.684878
0.0920334 -0.104492 0.311164
0.041765 0.190447 0.682192
0.0837428 -0.102914 0.304199
0.0746105 -0.0862517 0.294893
0.0264576 -0.144357 0.479583
-0.18339 -0.323178 0.705039
-0.0672588 0.238745 0.732468
0.10022 0.0423251 0.274085
0.19347 -0.29485 0.794019
0.158552 -0.27179 0.67499
-0.322728 -0.403917 0.950435
0.0329125 0.23493 0.706321
0.132087 0.0732013 0.352146
0.0499566 0.21144 0.775517
-0.0191502 -0.520178 1.35239
-0.282275 -0.0223284 0.838148
0.0970302 -0.00893311 0.522464
0.0256071 -0.203337 0.54455
-0.0160817 0.0295676 0.763969
-0.115748 0.0228327 0.927531
0.0955974 0.0256842 0.30016
0.0948022 -0.00782986 0.299538
0.100613 0.0263222 0.313333
0.0470515 -0.139914 0.311116
0.0430965 -0.239284 0.599488
-0.016776 -0.229848 0.579824
0.0915614 -0.00823374 0.582428
0.0785925 -0.0826192 0.215235
0.0799757 -0.0946634 0.248263
-0.166625 -0.28479 0.78138
-0.1429 0.0164979 0.80125
0.114909 0.0441809 0.947208
0.000218882 0.0112336 0.022346
-0.49416 0.34441 1.60623
0.181072 0.0700189 1.51683
0.138702 0.0816771 0.365425
0.0432751 -0.239544 0.597525
0.0710741 -0.0799112 0.207559
-0.162129 0.00841495 0.889996
-0.110765 -0.0593685 0.968292
0.035462 -0.188313 0.519956
-0.00673444 0.000749989 0.768081
-0.335874 -0.0228123 0.932273
0.0675872 -0.0880974 0.214925
-0.351778 -0.0038326 0.930987
0.0534582 -0.391193 1.06048
0.0416335 0.0672829 0.644405
-0.100643 0.206955 0.653273
-0.0823938 -0.216023 0.756172
0.101239 0.0217144 0.295833
0.0789756 -0.039411 0.404287
0.0107542 0.121914 0.648446
-0.00975885 0.115457 0.842194
-0.0976275 0.231717 0.699069
0.0308077 0.123861 0.711519
0.00526087 -0.19974 0.534727
-0.37651 0.273542 0.702148
-0.414855 0.221303 0.711185
0.0162071 -0.20455 0.546257
-0.0979998 -0.0473495 0.905705
0.117391 -0.0108212 0.361695
0.102826 -0.00106726 0.563728
0.092495 -0.577811 1.58824
-0.0824359 -0.0128145 0.85421
0.164315 -0.164854 0.49286
0.157258 0.0512261 0.401439
0.114821 0.0517627 0.313019
0.143113 0.0767146 0.370916
-0.131991 -0.11807 0.897483
0.00574306 -0.205527 0.540291
0.022208 -0.142508 0.473702
0.0890072 -0.00593787 0.631785
0.0543836 -0.227996 0.65672
0.0696105 -0.0800377 0.278689
-0.205869 0.038727 0.886958
0.0695683 -0.0446422 0.328825
0.145115 -0.0334489 0.40173
0.0909067 -0.0082479 0.282144
0.0495956 -0.143047 0.319329
0.0240351 -0.192513 0.496315
0.0807963 -0.02406 0.455171
-0.0175095 0.021971 0.780142
-0.096998 0.248361 0.829423
-0.266082 0.256704 0.803216
-0.168924 0.254247 0.752198
-0.352514 -0.334902 0.893158
-0.00610052 -0.118816 0.322223
0.100175 0.0248717 0.307694
-0.172374 -0.237291 0.77824
-0.246754 -0.0306382 0.902173
0.0230981 -0.140617 0.476999
-0.0208555 0.0199785 0.599521
-0.135318 0.0622234 0.73056
0.0627498 0.0310456 0.676454
0.0689441 -0.217098 0.564877
-0.20719 -0.20432 0.984886
0.254637 0.199012 0.671845
0.0557167 0.0382641 0.831727
-0.0083144 0.151738 0.579204
-0.0483576 0.158234 0.63551
-0.131195 -0.116598 0.889794
-0.18992 -0.0137711 0.866645
0.246787 -0.129662 0.787825
0.217623 -0.106164 0.613366
0.893394 -0.235001 1.6933
0.179214 -0.119759 0.466764
0.22721 -0.341332 0.843635
0.0659141 -0.311408 0.955519
-0.058454 0.193304 0.958974
-0.116546 0.269344 0.744535
-0.372449 0.263389 0.700033
-0.601816 0.104935 1.26831
-0.300023 0.0655654 0.837855
-0.395592 -0.013407 0.954462
-0.396361 0.0730866 0.817208
-0.288177 0.175069 0.938075
-0.356306 0.170479 0.907959
-0.21965 0.0562951 0.621243
0.35328 0.491181 1.47123
0.703895 0.477676 2.8347
0.113386 0.0384192 0.33835
0.331469 0.109458 0.965473
0.0706773 0.0179961 0.245281
0.786766 0.212944 2.03571
0.135396 0.100443 0.558592
-0.0247008 -0.00200143 0.292844
0.187581 -0.0776511 0.368484
0.169009 0.0838515 0.675956
0.167806 0.0778389 0.596772
0.0513498 0.0177972 0.214938
0.264236 0.10424 0.721552
0.302412 0.131255 0.823624
0.0939136 0.0610034 0.282683
0.110285 0.025003 0.317609
0.08643 0.0372338 0.303691
0.137808 0.0547799 0.439792
0.132366 0.0586507 0.424477
0.151465 0.0135651 0.501414
0.0957076 -0.0330984 0.183248
0.114054 0.000947547 0.387076
0.0793562 0.00219657 0.260318
0.173504 -0.0973049 0.437261
0.215805 -0.122958 0.529858
0.132428 0.0175561 0.381788
0.0779413 0.030809 0.341985
0.0970987 0.0386797 0.283558
0.297109 -0.442706 1.0477
0.199855 -0.269371 0.637992
0.165933 -0.228002 0.554565
0.129643 0.127866 0.726701
0.170584 0.116582 0.827385
0.13447 0.112903 0.710658
0.226394 0.254069 1.17872
-0.400777 -0.16127 0.828611
-0.866039 -0.291251 1.80457
-0.453418 -0.144983 0.937132
0.246766 -0.123362 0.502609
0.246789 -0.118079 0.509975
0.195312 -0.21103 0.570489
0.173386 -0.183338 0.509529
0.198005 -0.128882 0.600432
0.240885 0.0488625 0.866489
0.103195 -0.286528 0.879841
0.0644354 -0.139343 0.463961
-0.120021 -0.00642048 0.907401
-0.101249 0.00901394 0.844525
0.197018 -0.0966919 0.388846
0.143074 -0.0702167 0.275731
0.183753 -0.105225 0.431496
0.226399 -0.122608 0.532731
0.167804 0.0914334 0.475922
0.179693 -0.215167 0.534153
0.175712 -0.192397 0.502517
0.0975952 0.0166896 0.490662
0.0915265 0.0603293 0.506242
0.131964 0.0864068 0.645229
0.133421 0.311048 0.868738
0.0598115 -0.0219547 0.360291
-0.149513 0.00879334 0.865352
-0.203363 -0.00466597 0.887032
-0.204368 -0.0101967 0.89426
-0.366456 -0.428876 1.06937
-0.329017 -0.0140793 0.895145
-0.355323 0.00322322 0.93579
0.193386 -0.12927 0.4786
0.199381 -0.132145 0.511875
0.152044 -0.0938985 0.36889
0.250698 -0.319965 0.787627
0.196132 -0.239981 0.579951
0.166564 -0.284718 0.730768
0.216533 -0.358717 0.931085
0.316176 -0.579576 1.98831
0.121984 -0.218087 0.72844
0.112441 0.329646 0.907299
0.056038 -0.346142 0.950425
0.0344948 0.017447 0.791258
0.0427843 0.0162588 0.767819
-0.0360861 -0.599015 1.51492
-0.0581074 -1.44016 3.74882
-0.134046 -0.0187713 0.906647
-0.388954 0.227758 0.83658
-0.413709 0.248638 0.862342
0.162669 -0.0787696 0.374129
0.192467 -0.0921872 0.447817
0.526899 -0.127814 1.46928
0.183454 -0.0352969 0.47591
0.194449 -0.112639 0.504263
0.928605 -0.229466 2.69583
0.183408 -0.1599 0.575304
0.15159 -0.142198 0.477855
0.167451 -0.22059 0.561483
0.139924 -0.184763 0.457103
0.303825 0.201577 1.21253
0.0899357 -0.00837706 0.764898
0.0826595 0.00706137 0.774614
0.0123514 -0.40135 1.0021
0.0171836 -0.369506 0.951237
-0.228807 0.157564 0.83495
-0.241308 0.171814 0.912609
-0.248727 0.0141492 0.77294
-0.277989 -0.13576 0.622751
-0.167669 -0.0742232 0.372094
-0.645377 -0.321174 1.20359
0.106242 -0.0907996 0.215266
0.119764 -0.0637257 0.254033
0.251905 -0.134189 0.525278
0.20058 0.0166374 0.538826
0.113037 -0.0378623 0.342725
0.246735 -0.0750761 0.731496
0.159199 -0.314325 0.739496
0.156931 -0.261894 0.635799
0.175149 -0.228728 0.794456
0.169216 -0.208216 0.72352
0.145064 0.169773 0.709778
0.15379 -0.239431 0.818968
0.310656 -0.503959 1.7598
0.114732 0.00240836 0.643787
0.09322 -0.287345 0.840679
0.109002 0.0378193 0.817431
0.0104259 -0.351642 0.94368
-0.00288522 0.0226911 0.806474
-0.0408366 0.00647838 0.841811
-0.53583 -0.73539 1.90834
-0.393175 -0.583608 1.51802
-0.280449 -0.0126088 0.898349
0.189261 -0.133087 0.476054
0.175461 -0.17459 0.524068
0.174723 -0.169796 0.508018
0.169959 -0.13937 0.528692
0.182324 -0.139744 0.542713
0.162574 -0.157465 0.482538
0.357871 -0.183276 1.09848
0.210194 -0.0902688 0.659341
0.101026 -0.0375953 0.3134
0.150672 -0.102375 0.584602
0.211727 -0.338154 0.796145
0.321285 -0.476546 1.16472
0.330853 -0.459378 1.24763
0.37469 0.416068 1.75882
0.152765 -0.232337 0.626012
0.0278841 0.0247 0.888647
-0.0387311 0.0162489 0.7735
-0.0826086 -0.238471 0.844769
-0.0677979 0.171251 0.500535
-0.252128 0.112916 0.749697
-0.306494 -0.00349574 0.923204
-0.493647 -0.408583 1.31594
-0.324208 0.0108139 0.840928
-0.327847 0.0316726 0.876958
-0.284353 0.0370161 0.715982
-1.56491 0.539046 3.26115
-0.395655 0.13126 0.846785
0.158 -0.0652715 0.296724
0.164189 -0.115717 0.332528
0.179671 -0.110794 0.420063
0.201989 -0.120268 0.47021
0.164901 -0.141109 0.371469
0.191227 -0.182348 0.489748
0.197325 -0.171596 0.485815
0.177306 -0.159967 0.454023
0.253149 -0.285594 0.685713
0.207094 -0.120578 0.632264
0.207249 -0.107927 0.615534
0.183255 0.135666 0.55827
0.138189 -0.0794032 0.441025
0.164657 -0.179416 0.571645
0.184832 -0.19064 0.608425
0.0706034 -0.139284 0.36469
0.134188 0.0531168 0.642277
0.0993188 0.0292163 0.638771
0.331515 0.374966 1.9374
0.0518176 -0.010234 0.316065
0.0635289 -0.308563 0.897192
0.0793843 -0.287434 0.838512
-0.110734 0.0260068 0.852669
-0.199087 0.490428 1.29345
-0.204146 -0.329644 0.885705
0.0952403 -0.0768918 0.182219
0.154442 -0.101748 0.316188
0.182654 -0.115556 0.376042
0.165134 -0.129524 0.375818
0.149756 -0.148732 0.386592
0.179695 -0.174259 0.468934
0.189598 -0.174992 0.493997
0.549682 0.314982 1.43357
0.209719 -0.233827 0.593377
0.200145 -0.210647 0.548738
0.175246 -0.199286 0.596417
0.156016 -0.186177 0.591035
0.132354 0.195909 0.67161
0.0401594 -0.00670265 0.217708
0.148091 0.308193 0.898052
0.476363 -1.05255 3.59988
0.0716688 -0.381846 0.964996
0.103916 -0.536246 1.39064
0.0408194 0.124879 0.578427
0.0284637 -0.0211343 0.73022
0.040444 -0.183481 0.618254
-0.158199 -0.0227354 0.880963
-0.203895 -0.199933 0.963514
-0.154668 0.0183841 0.853091
-0.147599 0.0259503 0.822667
-0.269991 0.152729 0.998766
-0.271897 0.188838 0.899989
-0.495681 -0.29982 0.942124
0.220815 -0.0888269 0.525934
0.212528 0.0761374 0.539492
0.168637 -0.126989 0.398737
0.17711 -0.128717 0.458861
0.201716 -0.119976 0.551474
0.142 -0.163756 0.573683
0.267317 0.324927 1.32197
0.112394 0.0254066 0.745924
0.784148 1.46852 4.88985
0.110578 0.0641194 0.791642
0.000322292 -0.00696089 0.774126
-0.0319411 0.347635 0.926903
-0.0923349 0.401896 1.20702
-0.128607 0.365607 0.961505
-0.109796 0.197944 0.943913
-0.116057 0.071889 0.819401
-0.164957 -0.193357 0.938503
-0.186748 -0.00897912 0.870967
-0.284284 0.466315 1.3273
-0.141201 0.0572236 0.413236
-0.387859 0.278276 1.15302
-0.510348 -0.528714 1.38775
-0.366272 0.0111423 0.875293
-0.219743 0.0209689 0.511357
-0.396113 0.00764085 0.896828
-0.347946 0.144023 0.691038
-2.66609 -2.05127 4.82161
-0.679909 -0.534801 1.25773
-0.0856225 0.00688582 0.831927
0.878597 0.246949 2.24264
0.246715 0.125448 0.654085
0.181881 -0.132943 0.569131
0.188371 -0.127962 0.575549
0.254974 0.0700602 0.785909
0.0528007 0.0160179 0.157877
0.148844 0.132101 0.694984
0.165573 0.138628 0.722834
0.385891 0.137043 1.79515
0.14016 0.148424 0.772564
0.0951204 -0.193766 0.625777
0.117917 -1.2759 3.34045
0.0331993 0.00433461 0.772666
0.0500853 0.00872172 0.948688
-0.486447 0.0178478 1.41138
0.193997 -0.066616 0.389732
0.185169 -0.0822566 0.362826
0.109999 -0.0526885 0.216009
0.190268 -0.0881645 0.371888
0.409651 -0.162675 0.914405
0.198991 0.102814 0.514204
0.29442 0.102655 0.77616
0.127375 0.0478977 0.341673
0.129984 0.0508686 0.343942
0.16912 0.0464477 0.468762
0.275269 0.0738393 0.779814
