# .PCD v0.7 - Point Cloud Data file format
VERSION 0.7
FIELDS x y z
SIZE 4 4 4
TYPE F F F
COUNT 1 1 1
WIDTH 1713
HEIGHT 1
VIEWPOINT 0 0 0 1 0 0 0
POINTS 1713
DATA ascii
-0.146359 -0.129721 1.36865
-0.0504788 -0.0639641 1.46095
-0.119652 -0.0924903 1.37017
0.0637147 -0.10789 1.38193
0.0569573 -0.0986764 1.65729
0.0590589 -0.153656 1.60699
-0.039281 -0.0591625 1.40728
0.0683727 -0.141301 1.29273
-0.139296 -0.170529 1.48677
-0.188738 -0.210891 1.59796
0.0594631 -0.171015 1.60847
0.0566319 -0.0989794 1.65436
-0.121142 -0.084795 1.57679
-0.184412 -0.2418 1.59193
-1.02198 -0.453087 1.86715
-0.782584 -0.150472 2.09093
-0.120551 -0.0858051 1.41778
-0.196592 -0.293638 1.3732
-0.140021 -0.10465 1.37406
0.0687938 -0.194495 1.24321
-0.395594 -0.0727063 2.14454
0.0661457 -0.100097 1.18946
-0.148463 -0.349701 1.90616
-0.137432 -0.276701 1.84887
0.098111 -0.300773 1.80726
0.0653832 -0.177502 1.35795
-0.143281 -0.188699 1.60041
-0.135921 -0.205137 1.81998
-0.183998 -0.38457 1.99744
-0.0077794 -0.269952 2.05017
-0.00406578 -0.325281 2.06017
0.030399 -0.12551 1.83843
-0.0862473 -0.149006 2.02722
0.0339336 -0.130349 1.87949
0.0683071 -0.198687 1.59499
0.0332731 -0.132189 1.66591
-0.0487979 -0.147558 2.01065
-0.133616 -0.138929 2.00215
-0.139121 -0.111401 1.36754
-0.0749093 -0.152596 2.03425
-0.308476 -0.299058 2.07676
-0.12118 -0.227527 1.36716
0.0671688 -0.180215 1.32526
0.0717542 -0.120534 1.30222
-0.00802579 -0.383301 1.64585
0.0499993 -0.299742 1.49604
0.0899002 -0.1277 1.3752
0.0547286 -0.264774 1.59265
0.0648324 -0.104465 1.68031
-0.122424 -0.111926 1.5988
0.0628646 -0.403676 1.89046
0.093335 -0.171323 2.08361
-0.146183 -0.110483 1.60362
0.071361 -0.120071 1.30073
0.0666855 -0.178219 1.19559
0.0680858 -0.141887 1.21393
-0.195644 -0.295096 1.3719
-0.112877 -0.0524785 1.36937
-0.159364 -0.122355 1.58746
-0.145655 -0.11075 1.60613
0.0653719 -0.118266 1.29368
-0.169751 -0.155109 1.34683
0.0709477 -0.046087 1.32221
-0.0219347 -0.363423 2.04482
-0.139062 -0.351171 1.82479
0.030696 -0.432407 2.02053
0.0672134 -0.10521 1.19259
0.0618903 -0.223825 1.4184
0.0590363 -0.124223 1.60879
0.0731033 -0.222103 1.56582
0.0617404 -0.170516 1.37239
-0.584975 -0.337048 2.08561
-0.142973 -0.128743 1.60409
0.0685082 -0.248156 1.52953
-0.133287 -0.297038 1.58926
-0.116242 -0.195747 1.41984
-0.158417 -0.16486 1.33231
0.0722952 -0.274231 1.53933
-0.0514962 -0.0807692 1.54716
-0.140291 -0.192099 1.37256
-0.119887 -0.10485 1.36532
0.0604571 -0.281563 1.40894
-0.159171 -0.143754 1.37021
-0.0505046 -0.0699571 1.47369
0.0626093 -0.40122 1.80811
-0.149729 -0.147946 1.36511
-0.122089 -0.23474 1.36986
0.0700238 -0.14241 1.21798
-0.049385 -0.0560246 1.39078
-0.130397 -0.057452 1.34422
0.114854 -0.220193 1.82675
0.0578843 -0.219506 1.65113
0.0649068 -0.220491 1.81984
-0.0182656 -0.388447 1.86927
0.0552998 -0.165723 1.86885
0.0321949 -0.107801 1.78339
0.0697239 -0.236235 1.68218
0.0831651 -0.114786 1.75956
0.114964 -0.23567 1.82663
0.057285 -0.123713 1.6563
0.06536 -0.246898 1.3629
0.0694887 -0.209866 1.57613
-0.238942 -0.150218 2.06154
-0.12433 -0.132923 1.92793
0.045957 -0.32163 2.0563
-0.00834422 -0.327386 2.07466
-0.138385 -0.275382 1.59927
-0.125191 -0.139455 1.64665
0.0673384 -0.111299 1.19259
-0.0975866 -0.044297 1.33843
0.0714247 -0.150167 1.25839
0.0654707 -0.179197 1.21458
0.0694472 -0.215402 1.22356
0.0665046 -0.442294 2.02696
-0.138693 -0.135926 1.81929
-0.119968 -0.150898 1.41679
-0.196112 -0.338857 2.03405
-0.159082 -0.138708 1.33134
0.0684763 -0.15912 1.22211
-0.379144 -0.125395 1.94815
-0.850444 -0.466049 1.96665
-0.97887 -0.339357 2.07765
-1.05991 -0.367527 2.07595
-1.12313 -0.154563 2.03824
0.0636171 -0.245151 1.87725
-0.055993 -0.116594 1.79511
0.133769 -0.130801 1.82894
0.0260316 -0.119079 1.77889
-0.0132208 -0.151137 2.03119
-0.391028 -0.134924 2.05822
-0.169027 -0.19991 1.60688
0.0709169 -0.0815487 1.48643
0.0658906 -0.107182 1.38746
-0.135908 -0.12954 1.79323
-0.00720876 -0.265062 2.05257
0.0614633 -0.12755 1.42214
0.0686295 -0.254806 1.56435
-0.118929 -0.20762 1.41289
0.036358 -0.0706797 1.40983
0.063744 -0.216425 1.42167
0.0688126 -0.272343 1.56985
-0.00587758 -0.0787822 1.54258
0.0705594 -0.256579 1.57666
-2.06635 -0.424918 2.05421
-1.82959 -0.201296 2.06558
-1.95973 -0.498686 2.06166
-0.186672 -0.289639 1.58981
-0.163597 -0.199344 1.60041
-0.125139 -0.150729 1.42964
-0.118785 -0.16808 1.36478
-0.447376 -0.130328 1.91982
-0.143827 -0.0782565 1.53307
0.0609851 -0.378187 1.72706
-0.0212093 -0.364499 2.04738
-0.00277347 -0.265496 2.05821
0.00194809 -0.30831 2.0515
-0.121715 -0.117524 1.36814
0.0684946 -0.116073 1.30111
-0.00267471 -0.0570132 1.45769
-0.120974 -0.0642979 1.42202
0.0653872 -0.0760202 1.18899
0.0660577 -0.179881 1.21771
-1.27033 -0.152499 1.89901
-0.815199 -0.430312 2.07298
-0.0424049 -0.384793 1.72401
0.0615158 -0.12274 1.37431
0.061836 -0.139493 1.42253
-0.143453 -0.11187 1.59771
0.0561713 -0.192032 1.60188
0.0610252 -0.132573 1.66777
-0.135108 -0.0959876 1.37605
-0.0114263 -0.339815 1.46273
-0.039171 -0.345715 1.47218
0.0608089 -0.371189 1.60538
-0.153155 -0.143155 1.60292
-0.130061 -0.212278 1.38744
0.070868 -0.191097 1.26265
0.0604974 -0.302319 1.60256
0.0600203 -0.195246 1.60888
0.0591533 -0.193749 1.6084
0.0733207 -0.240179 1.54765
-1.76326 -0.369284 2.07068
0.0616604 -0.131796 1.66844
-0.152917 -0.198193 1.36987
-0.0295996 -0.0662447 1.44984
0.069776 -0.0813124 1.30555
-0.15009 -0.330809 2.15421
0.0652698 -0.163738 1.43009
0.059011 -0.112613 1.61096
-0.0728375 -0.074874 1.48704
0.0605852 -0.200336 1.3683
-0.398923 -0.129881 2.01857
-1.63396 -0.487316 2.0653
-0.1223 -0.228398 1.37058
0.0612826 -0.109514 1.3775
-0.141314 -0.172369 1.47051
-0.127004 -0.197215 1.64838
-0.0307127 -0.0923081 1.70095
-0.172486 -0.318256 1.60321
0.0654021 -0.190292 1.17334
0.0629776 -0.232435 1.81592
-0.129383 -0.0854049 1.35341
-0.119134 -0.0557922 1.4457
0.0650398 -0.0710019 1.18774
0.064728 -0.265542 1.52161
-0.166532 -0.160675 1.37069
0.0710545 -0.170311 1.26236
0.0700836 -0.210263 1.20082
0.0696541 -0.153415 1.22585
-0.147714 -0.0855258 1.37949
-0.143498 -0.0578208 1.35596
0.0659931 -0.215554 1.36772
-0.241239 -0.149041 2.05884
-0.276881 -0.163982 2.07512
-0.588294 -0.248829 2.09308
-0.178992 -0.255865 1.34687
-0.136516 -0.0759469 1.33866
-0.165325 -0.153372 1.31799
-0.158725 -0.141426 1.3365
-0.121629 -0.131322 1.19473
-0.149686 -0.0552254 1.2886
-0.163346 -0.147762 1.36841
-0.0493184 -0.0450597 1.34203
0.0677092 -0.143403 1.82886
0.0685484 -0.14839 2.01426
-0.130269 -0.21793 1.65357
-0.173074 -0.10999 1.92418
0.0676437 -0.243271 1.37183
0.066363 -0.267301 1.52533
0.0613576 -0.08468 1.55519
-0.0854281 -0.330381 2.09185
-0.22555 -0.147068 2.0667
-0.0823091 -0.152056 2.02766
-0.00253369 -0.144809 2.00342
-0.171287 -0.385409 2.02619
-0.126662 -0.170012 1.64675
0.0659025 -0.16827 1.17427
-0.15271 -0.101176 1.35993
0.0668173 -0.198453 1.20276
-0.162007 -0.13636 1.29709
-0.184565 -0.264594 1.35447
0.0723405 -0.0653448 1.20495
-0.998637 -0.996792 3.14315
0.0739737 -0.127449 1.21298
-0.119567 -0.187672 1.36528
-0.200076 -0.241494 1.3811
-0.0372192 -0.324659 2.0734
-0.10472 -0.15141 2.02446
-0.127236 -0.176614 1.6484
0.0611589 -0.241172 1.41538
-0.168554 -0.193156 1.59733
0.0673642 -0.115129 1.36886
-0.12879 -0.156027 1.43916
0.065081 -0.101442 1.38422
-0.122959 -0.0332089 1.28027
-0.156843 -0.215641 1.59326
-0.15759 -0.21679 1.59215
-0.156552 -0.240665 1.58964
-0.0954823 -0.342902 2.07974
-0.136988 -0.176412 1.81689
-0.142437 -0.319256 1.59542
-0.142225 -0.24085 1.36489
0.0670112 -0.19122 1.17686
0.0671077 -0.195933 1.20354
-0.152059 -0.155786 1.59859
0.0100101 -0.265055 2.06789
-0.145254 -0.232827 1.60408
0.0694593 -0.278283 1.57833
-0.278821 -0.218338 2.08342
-0.257674 -0.323753 2.04276
-0.158939 -0.164117 1.32497
-0.149409 -0.0937876 1.354
0.0607168 -0.205906 1.19945
0.066695 -0.182924 1.19953
-0.145175 -0.0865306 1.37241
-0.14051 -0.0472659 1.34875
0.0687859 -0.16283 1.26049
-0.138249 -0.289883 1.63566
0.0307619 -0.121084 1.8085
-0.198704 -0.541255 2.16126
-0.256299 -0.158129 2.06411
-0.239865 -0.147569 2.06054
0.00728376 -0.399234 2.04534
0.00613361 -0.234553 2.04803
-0.109364 -0.129791 1.94378
-0.153285 -0.0119445 1.74147
-0.103373 -0.397585 1.80656
-0.123217 -0.103106 1.37735
-0.586426 -0.323208 2.08487
-0.639442 -0.281967 2.10003
-0.579501 -0.164594 2.08565
-0.578709 -0.162774 2.08662
-0.126814 -0.142765 1.37948
-0.160116 -0.269319 1.36521
-0.16817 -0.208567 1.36487
-0.157147 -0.164496 1.3319
-0.145042 -0.20135 1.36027
-0.147766 -0.202557 1.36668
0.0459831 -0.0293429 1.19147
0.00175011 -0.0558205 1.36866
0.016897 -0.0844217 1.57783
0.0649882 -0.0578226 1.14156
-0.0589418 -0.34634 2.12971
0.0591414 -0.235736 1.81206
0.0740233 -0.204868 1.88343
-0.0343678 -0.127498 1.88931
-0.139802 -0.169525 2.0537
-0.190151 -0.237168 1.36353
-0.111241 -0.164615 2.06381
-0.310853 -0.348861 2.0886
-0.133521 -0.299412 1.80511
-0.138296 -0.254909 1.87103
-0.134564 -0.192218 1.81348
0.062585 -0.0552697 1.18119
0.0641786 -0.0396246 1.18625
-0.116571 -0.120852 1.14016
0.0775514 -0.252659 1.60953
0.00580273 -0.0948584 1.62108
0.0674248 -0.159521 1.20168
-0.140774 -0.0400661 1.2626
-0.00669551 -0.319609 2.05237
-0.0499449 -0.181164 2.04223
-0.144017 -0.31936 1.85193
0.0613569 -0.223891 1.65756
-0.0968627 -0.382771 1.79966
-0.160304 -0.146616 1.58524
-0.125752 -0.155601 1.64884
-0.761533 -0.145229 2.08196
0.0668497 -0.236511 1.25141
-0.17233 -0.341973 2.04721
0.0643586 -0.121775 1.82802
0.036946 -0.334445 2.04775
0.065875 -0.094036 1.18934
-0.123749 -0.156176 1.37593
0.0835398 -0.0826187 1.13886
-0.16447 -0.165239 1.37252
0.0764693 -0.128891 1.14509
0.0692179 -0.209302 1.19936
0.0373977 -0.0300296 1.1695
-0.125151 -0.183615 1.13794
-0.137499 -0.217445 1.87343
0.00628373 -0.392009 2.04722
0.0606391 -0.172727 1.87942
-0.0300756 -0.347467 2.05127
-0.325248 -0.122849 2.07024
-0.447452 -0.270564 1.8645
0.0626035 -0.283654 1.61265
-0.0985085 -0.0882594 1.59857
-0.622071 -0.104573 1.9676
0.0705913 -0.337715 1.7289
-0.165229 -0.203611 1.33155
-0.190664 -0.284004 1.36886
-0.400425 -0.135585 1.87674
-0.445204 -0.136177 2.05867
-1.29656 -0.49029 1.8554
-0.909771 -0.331852 1.857
-0.49487 -0.140128 1.99788
-0.16801 -0.132716 1.28188
0.0659653 -0.1713 1.82243
-0.285668 -0.297868 2.0744
-0.279742 -0.316986 2.07276
0.0558847 -0.12827 1.11903
0.0720977 -0.171828 1.19161
-0.00792772 -0.0326969 1.20696
-0.155729 -0.209261 1.59422
0.0694539 -0.25629 1.57826
-0.0181146 -0.421799 1.96515
-0.138413 -0.360451 1.81247
0.0634538 -0.293359 1.81361
0.0462323 -0.0425972 1.31062
0.0651994 -0.0717293 1.13931
0.0691045 -0.235197 1.25692
-0.132679 -0.31638 1.46791
-0.0238881 -0.0366219 1.25929
-0.117909 -0.114338 1.13748
-0.116654 -0.14701 1.13376
-0.167502 -0.161149 1.37418
0.057422 -0.228571 1.60079
-0.140116 -0.153197 1.60058
-0.143 -0.111961 1.603
0.05898 -0.228456 1.65152
-0.146377 -0.085195 1.38141
0.0626036 -0.0216782 1.31896
0.0663948 -0.0922067 1.2912
0.0365736 -0.336529 2.05436
-0.137982 -0.140101 1.85723
0.0631468 -0.262581 1.51601
-0.15368 -0.168329 1.60208
-0.155686 -0.265486 1.35535
0.0674778 -0.156055 1.36871
0.0661111 -0.166955 1.15775
0.0688214 -0.110842 1.15274
0.067353 -0.110988 1.14751
-0.0133915 -0.144762 1.94778
-0.0964787 -0.335667 2.06729
-0.125644 -0.147989 1.99103
0.0700643 -0.131456 1.30248
-0.117651 -0.108517 1.13533
-0.118044 -0.0564516 1.13862
0.0679017 -0.1542 1.14608
0.0670104 -0.191228 1.17744
0.0678163 -0.153657 1.1452
-0.121731 -0.141686 1.14529
0.0665274 -0.204994 1.22295
-0.131425 -0.0357509 1.24259
-0.0480778 -0.0360685 1.26232
-0.119396 -0.227565 1.40728
-0.134335 -0.281984 1.35158
0.0420977 -0.0603043 1.39785
-0.0829813 -0.319047 2.04907
0.00839198 -0.26639 2.05877
-0.150967 -0.204685 1.14043
-0.126059 -0.216822 1.13588
0.0822178 -0.045306 1.1397
-0.135535 -0.18225 1.13322
-0.126444 -0.1562 1.3784
0.0667266 -0.169524 1.17596
-0.117824 -0.187295 1.13141
-0.125607 -0.216704 1.13532
-0.123512 -0.201065 1.13051
-0.116175 -0.179692 1.13138
-0.143427 -0.0612306 1.35162
-0.123143 -0.206831 1.20511
-0.164663 -0.0531833 1.39488
-0.119893 -0.101588 1.13888
0.114509 -0.214547 1.1613
-0.123117 -0.0964781 1.12933
-0.125342 -0.143455 1.37886
0.0968887 -0.127557 1.14478
-0.143638 -0.0874531 1.13695
-0.0564022 -0.377102 1.56908
0.0696164 -0.153334 1.25547
0.103881 -0.117249 1.14291
-0.142686 -0.0876772 1.1354
-0.136101 -0.181769 1.13268
0.0839207 -0.158057 1.14178
-0.118867 -0.196152 1.1875
-0.302388 -0.217992 2.10231
-0.00717425 -0.0987484 1.65839
0.0666292 -0.17748 1.5997
0.057625 -0.202143 1.60272
0.0576791 -0.244283 1.59968
-0.123656 -0.226708 1.59325
-0.128807 -0.100844 1.61051
-0.151247 -0.207771 1.59373
-0.117441 -0.0438526 1.1387
-0.0458548 -0.0303761 1.18725
-0.126023 -0.0580521 1.13573
-0.132148 -0.110676 1.13689
-0.0102869 -0.360613 1.49767
-0.00918875 -0.0497132 1.3777
0.0684023 -0.149402 1.25019
0.0187414 -0.0677137 1.44986
0.0673803 -0.116027 1.29932
-0.159682 -0.193016 1.59762
-0.178991 -0.290222 1.57461
0.0513883 -0.298268 2.05968
-0.186513 -0.259564 1.35885
0.0678303 -0.124135 1.19438
-0.189654 -0.237065 1.36358
0.0593206 -0.139825 1.92876
-0.143513 -0.333208 1.88252
0.0608593 -0.299298 1.8703
0.0621211 -0.285591 1.87442
-0.141994 -0.0415968 1.26546
-0.122886 -0.261422 1.42221
-0.148399 -0.122864 1.37809
0.0698352 -0.0922512 1.30631
-0.571872 -0.257924 2.08788
-0.437638 -0.384792 2.08421
-0.435907 -0.132002 2.01591
-0.127704 -0.253654 1.64929
-0.127415 -0.102087 1.60504
-0.140026 -0.187453 1.59675
-0.154266 -0.248126 1.60072
-0.145469 -0.122945 1.37795
-0.144123 -0.0588492 1.3562
0.0741832 -0.0695559 1.14061
-0.0233262 -0.343981 2.08419
-0.0152079 -0.390282 1.72776
-0.133701 -0.389661 1.74551
-0.0923077 -0.0351117 1.22984
-0.15249 -0.160709 1.60071
0.0852721 -0.260605 1.56907
0.0530865 -0.350154 2.06161
-0.242782 -0.14421 2.05041
0.0418318 -0.315727 2.05652
0.0518469 -0.320406 2.05568
-0.119424 -0.0384694 1.28296
0.0741794 -0.22966 1.2703
-0.117769 -0.108449 1.13518
0.0674176 -0.191169 1.17797
0.0715319 -0.0740653 1.14257
0.0663814 -0.186828 1.15404
0.0669404 -0.129224 1.14392
-0.115499 -0.171557 1.12855
0.0129965 -0.239635 2.05663
-0.138367 -0.230819 1.36589
-0.0943045 -0.0409306 1.27741
-0.15304 -0.14121 1.33323
-0.128095 -0.160978 1.13045
0.0661344 -0.039363 1.1439
-0.139678 -0.225622 1.87528
-0.0241348 -0.139015 1.95459
-0.739183 -0.141001 1.857
-0.980939 -0.341221 2.0786
-0.137887 -0.13482 1.81915
-0.140129 -0.114896 1.13731
0.0666281 -0.123995 1.19158
-0.000747547 -0.0389425 1.28609
0.0628281 -0.123038 1.13428
-0.209856 -0.253302 1.87216
-0.214209 -0.259556 1.87178
-0.381495 -0.111767 2.01568
-0.416195 -0.134337 1.88783
0.0797301 -0.159898 2.05543
-0.117692 -0.146862 1.18309
-0.139831 -0.0528757 1.33142
-0.142377 -0.131123 1.8314
-0.413966 -0.324576 2.08368
-0.3323 -0.130414 2.00765
-0.138203 -0.218673 1.87351
-0.126668 -0.12507 1.60437
-1.72967 0.490116 2.00777
-0.644434 -0.332133 2.08745
-0.125629 -0.162235 1.60944
-0.126722 -0.214342 1.60885
0.0614022 -0.262588 1.60725
-0.270734 -0.139604 2.02063
-0.0919996 -0.186602 2.01405
0.0714844 -0.258248 1.58364
-0.104932 -0.398301 1.78631
0.00674369 -0.395889 2.03564
0.0679256 -0.118159 1.63402
-0.125549 -0.195054 1.43342
-0.0497259 -0.0717976 1.46489
-0.18946 -0.184262 1.65561
0.0668434 -0.15908 1.2042
-0.163958 -0.148293 1.37201
0.0466004 -0.0419876 1.3107
-0.186137 -0.219828 1.36083
0.0685082 -0.117268 1.19485
-0.473166 -0.125043 1.97716
-0.675465 -0.36062 2.11492
0.0749811 -0.213734 1.57305
0.0670297 -0.371458 1.95621
-0.0141604 -0.41575 1.87015
0.0078161 -0.381151 2.02824
0.0133776 -0.234548 2.04996
-0.121992 -0.155502 1.3729
0.0711536 -0.144961 1.23796
-1.01939 -0.0936118 2.05358
-0.156907 -0.140275 1.32906
-0.712587 -0.332435 2.08626
-0.433019 -0.115418 1.95097
-1.07989 -0.406216 2.11333
-0.121168 -0.0568676 1.37893
-0.116383 -0.0888313 1.13388
-0.123295 -0.0628482 1.43023
-0.128191 -0.060902 1.13982
0.0658034 -0.190141 1.1741
0.0637242 -0.0742689 1.13325
0.056404 -0.307745 2.08708
0.0219906 -0.0466607 1.33086
0.0657878 -0.0386339 1.19478
-0.134192 -0.209855 1.15871
-0.108182 -0.0253608 1.18308
-0.143423 -0.0622227 1.13719
0.0447557 -0.0363552 1.23065
-0.123252 -0.143655 1.60455
0.119999 -0.140441 1.83796
0.0691643 -0.144158 1.23329
-0.118047 -0.114527 1.13641
-0.138085 -0.101736 1.13888
0.104657 -0.158317 1.14253
0.0839883 -0.399707 2.07458
-0.00317755 -0.152224 2.04516
-0.0132354 -0.115059 1.81152
-0.321384 -0.353283 2.0707
-1.28584 -0.408576 2.07145
0.0675603 -0.142324 1.14296
-0.0449574 -0.0322271 1.18081
0.0681913 -0.127908 1.19973
-0.317826 -0.162367 2.07398
-0.134343 -0.296857 1.80525
-0.139682 -0.187988 1.24607
-0.120924 -0.0868499 1.35764
-0.121302 -0.266675 1.41684
-0.234078 -0.149314 2.04186
0.0211478 -0.0411791 1.24673
0.0825769 -0.13196 1.14255
-0.022943 -0.0270085 1.19413
0.069002 -0.173133 1.14802
-0.631875 -0.312618 1.85904
0.0658055 -0.110535 1.14242
-0.0535687 -0.422495 1.9565
-0.113222 -0.358239 2.06095
-0.221394 -0.358027 2.07591
0.0658971 -0.178254 1.19415
-0.18396 -0.226243 1.35876
-0.0463446 -0.0343808 1.22173
-0.173642 -0.146425 1.35112
0.065077 -0.0696832 1.14149
-0.116519 -0.270065 1.39612
-0.148998 -0.148644 1.2725
-0.118098 -0.0289115 1.18816
-0.1094 -0.031078 1.20984
-0.136397 -0.0634298 1.13696
0.0675213 -0.143802 1.14222
0.0727799 -0.203904 1.54188
-0.126281 -0.150226 1.60253
-0.45304 -0.231283 1.85971
-0.443578 -0.3586 1.86618
0.0719738 -0.210062 1.56202
-0.128558 -0.239588 1.60817
0.0678856 -0.211452 1.19542
-0.13403 -0.044298 1.24925
-0.237583 -0.143023 2.0322
-0.0314715 -0.330528 2.08545
-0.116414 -0.149761 2.03633
-0.0719655 -0.0758592 1.48175
-0.13604 -0.335658 1.86917
-0.861565 -0.172737 2.07973
-0.757321 -0.426341 2.0766
-0.177078 -0.315543 2.05691
0.00246836 -0.246276 2.05148
-0.216443 -0.354049 2.0691
0.0610583 -0.115617 1.37646
-0.132319 -0.0355919 1.24393
-0.115849 -0.186169 1.12965
0.0772324 -0.198344 1.15112
-0.0123702 -0.373271 1.65851
0.0730549 -0.0967765 1.14136
-0.0827663 -0.357773 2.11677
-0.0661961 -0.185117 1.96383
-0.137679 -0.299255 1.81102
0.047587 -0.301904 1.83783
-0.582239 -0.278028 2.07706
-0.442232 -0.192489 1.86045
-0.574228 -0.312182 2.09547
0.0633295 -0.0883133 1.4439
-0.128674 -0.125945 1.67344
-0.494515 0.137136 3.17733
-0.051702 -0.0325912 1.22482
0.118955 -0.127536 1.84231
-0.0947778 -0.153339 2.00493
-0.124217 -0.109332 1.37833
0.0699564 -0.0409387 1.24063
-0.427854 -0.358415 2.07519
-0.117631 -0.150101 1.22044
-0.119159 -0.127957 1.13867
-0.125474 -0.176138 1.37354
-0.156176 -0.106683 1.14568
0.0654503 -0.179164 1.21415
0.0665611 -0.177333 1.14039
-0.0853896 -0.128191 2.09922
-0.369912 -0.144642 2.08475
0.068507 -0.194461 1.24322
-0.124619 -0.227999 1.36665
-0.12087 -0.128357 1.14144
-0.128997 -0.288933 1.4479
0.0654323 -0.398176 1.71648
0.0666508 -0.154423 1.36742
0.0630791 -0.16347 1.42468
0.0609523 -0.222912 1.87582
-0.137574 -0.218724 1.87091
0.0111988 -0.234454 2.05615
-0.036119 -0.325096 2.05707
0.0753008 -0.115865 1.45963
-0.139194 -0.0744931 1.34611
-0.108665 -0.327543 1.44605
-1.36892 -0.183864 2.0668
0.0732896 -0.133473 1.29861
0.0664563 -0.132177 1.13971
0.0674747 -0.211727 1.19597
-0.0959067 -0.0210383 1.18035
0.061602 -0.0280955 1.5127
-0.138196 -0.183922 1.13297
-0.137243 -0.0493013 1.13977
-0.0246689 -0.0464894 1.32519
-0.165478 -0.284155 1.36764
-0.123684 -0.353515 1.63576
0.0588505 -0.204136 1.36337
0.065707 -0.200996 1.37945
0.0611726 -0.288388 1.60753
0.0598224 -0.121992 1.61156
-0.184485 -0.186858 1.59354
-0.165444 -0.128561 1.35539
0.0714145 -0.137549 1.23922
-0.00966206 -0.0504635 1.3648
0.0687067 -0.184512 1.23545
0.0626541 -0.21427 1.87917
-0.15072 -0.181533 1.36469
0.0697258 -0.100847 1.695
0.0593628 -0.13997 1.61027
-0.121157 -0.164845 1.63641
-0.834427 -0.186033 2.07067
-0.871089 -0.392052 2.078
-0.134399 -0.0916249 1.13576
0.0648319 -0.122112 1.1896
-0.0241217 -0.0370535 1.26079
-0.0227718 -0.0252397 1.16873
-0.134986 -0.217224 1.12042
-0.140093 -0.0810189 1.14026
0.0927176 -0.324716 1.48345
-0.141725 -0.0390003 1.29493
-0.150467 -0.0745282 1.11573
0.0640346 -0.132096 1.19352
-0.364334 -0.133713 2.05944
0.0921156 -0.251521 1.82218
-0.142002 -0.324345 1.82368
0.0769324 -0.171865 1.81515
0.0677558 -0.136427 1.21539
0.0673501 -0.158454 1.19904
0.101776 -0.0562372 1.04416
0.102969 -0.082364 1.0329
0.0456498 -0.0224438 1.11847
0.101953 -0.0880965 1.04359
0.0971216 -0.0834055 1.02222
0.0782772 -0.0231933 1.13583
0.0537373 -0.370671 1.64504
0.072651 -0.140108 1.28549
0.0601531 -0.094766 1.60949
-0.160722 -0.164085 1.37492
-0.128419 -0.167738 1.14824
0.067004 -0.11085 1.14633
0.0682979 -0.132813 1.14328
0.0665839 -0.049625 1.14049
0.0720506 -0.0357989 1.22342
0.100273 -0.109034 1.05173
0.105312 -0.124702 1.08562
-0.151133 -0.054857 1.08034
0.103614 -0.153714 1.06073
0.102654 -0.164594 1.06078
0.103572 -0.107851 1.03848
-0.172911 -0.193696 1.60554
-0.0141057 -0.155096 2.038
-0.0287379 -0.17397 2.03957
-0.215527 -0.147786 2.04399
0.112119 -0.090018 1.14443
-0.157895 -0.121322 1.15281
-0.0547208 -0.392788 1.75369
0.074371 -0.105216 1.20605
0.0667117 -0.047986 1.14342
0.0668736 -0.0466455 1.14559
-0.109355 -0.386652 1.57255
-0.13938 -0.0776289 1.34464
-0.14567 -0.0893131 1.3622
-0.0401673 -0.0376829 1.08034
0.102546 -0.0376105 1.11519
0.0235682 -0.0202682 1.12204
-0.121268 -0.213533 1.13162
-0.338975 -0.132554 2.03177
-0.119064 -0.154702 1.41201
-0.119445 -0.0434827 1.14165
0.00643812 -0.388588 2.04212
-0.13503 -0.156634 1.3735
-0.00760629 -0.0532416 1.36334
-0.175383 -0.222636 1.15227
0.0222584 -0.0377697 1.25699
-0.117669 -0.206687 1.13124
0.0676689 -0.275614 1.36632
0.088257 -0.329195 1.77567
-0.136518 -0.211377 1.81942
-0.136758 -0.27929 1.86745
0.0457113 -0.126429 1.8958
-0.126763 -0.176373 1.3759
-0.154523 -0.126906 1.13512
0.0715667 -0.19081 1.14102
0.0633039 -0.333195 1.57922
0.0775225 -0.112615 1.14908
-0.165554 -0.127163 1.13875
-0.118169 -0.353463 1.54201
0.101993 -0.133523 1.05988
0.11072 -0.126698 1.05043
0.107274 -0.0295258 1.14876
0.0247353 -0.0140452 1.07835
0.00490983 0.00015821 1.16282
0.100189 -0.124736 1.03224
0.106107 -0.106367 1.04452
0.101838 -0.142101 1.0401
0.0612382 -0.170867 1.67568
-0.179193 -0.314316 1.96126
0.0611181 -0.147684 1.81882
0.228515 0.0703912 1.38241
-0.121336 -0.0852679 1.13624
-0.268626 -0.347976 2.06259
-0.328427 -0.35997 2.08501
0.0672317 -0.0432437 1.1449
-0.128528 -0.203063 1.13535
-1.33471 -0.163401 2.07396
-0.934289 -0.400195 2.09389
-0.892116 -0.28794 2.08213
-0.0839682 -0.133899 1.95596
-0.138148 -0.0510579 1.34925
-0.149653 -0.318794 1.36049
-0.0728933 -0.0411938 1.31103
0.116346 -0.238165 1.14762
0.0695647 -0.25486 1.55833
-0.123059 -0.0580118 1.39012
0.0690367 -0.0802013 1.19727
-0.13797 -0.0789953 1.34003
0.0671532 -0.196421 1.20344
0.0735493 -0.137724 1.28354
0.0703626 -0.137716 1.27018
0.0859732 -0.15606 1.14834
-0.117901 -0.101304 1.13713
0.067765 -0.0861601 1.14207
0.103739 -0.135011 1.10968
0.066017 -0.186639 1.15447
-0.127 -0.126933 1.78544
0.0551336 -0.231971 1.59479
0.0578243 -0.247903 1.59699
-0.183849 -0.288627 1.58484
-0.155212 -0.266268 1.58805
-0.162265 -0.152386 1.5858
-0.124927 -0.119744 1.65191
-0.125494 -0.16513 1.43091
-0.0296247 -0.0805538 1.53355
-0.137454 -0.171724 1.46109
-0.304373 -0.30004 2.08969
-0.0267684 -0.0685275 1.4485
-0.122572 -0.13635 1.3743
0.0622999 -0.107765 1.29022
0.0840844 -0.367273 1.95825
-0.284989 -0.32679 2.07404
-0.113902 -0.177672 1.38391
-0.0462886 -0.0157811 1.13402
-0.121601 -0.0561349 1.13928
0.0672796 -0.147601 1.3672
-0.132841 -0.184463 1.37869
0.0702009 -0.148222 1.3802
0.0653736 -0.239019 1.18593
0.00412567 -0.148286 2.0181
-0.147472 -0.209101 1.59279
-0.122701 -0.128464 1.64599
-0.0472501 -0.0331285 1.23629
0.0644509 -0.333553 1.58905
-0.155338 -0.0519166 1.38074
0.0412159 -0.0657321 1.42556
-0.120949 -0.180194 1.41742
-0.184146 -0.298078 1.57746
0.05752 -0.135132 1.66298
0.0920906 -0.262134 1.81088
-0.262482 -0.0364623 2.18711
-0.139711 -0.190159 1.60167
-0.125553 -0.298209 1.63966
-0.125072 -0.187968 1.64642
0.0643096 -0.207783 1.81982
0.0516316 -0.341433 2.05505
-0.209142 -0.304695 1.58841
-0.416278 -0.131977 2.00391
0.081036 -0.236293 1.57796
-0.131157 -0.0360216 1.13945
0.119987 -0.127326 1.07532
-0.161243 -0.112227 1.13239
0.103093 -0.13419 1.111
0.109189 -0.170129 1.12624
-0.13982 -0.407962 1.83229
-0.014284 -0.406021 1.79367
0.0787452 -0.0134119 1.0759
0.00131962 -0.0151413 1.07608
-0.173037 -0.108123 1.12269
0.00140874 -0.0186747 1.12911
0.104682 -0.193002 1.0603
-0.0931732 -0.0198898 1.15056
0.0782023 -0.07128 1.15409
-0.0187683 -0.0680862 1.44878
-0.243478 0.0614045 1.36867
-0.146771 -0.202361 1.13291
-0.003009 -0.0557818 1.39397
0.109586 -0.212104 1.10753
-0.138262 -0.0348344 1.13975
-0.024565 -0.0400325 1.24713
0.0252227 -0.0475075 1.43432
0.061984 -0.201899 1.18403
0.104599 -0.184267 1.09767
0.0705236 -0.0140191 1.08126
-0.120287 -0.0862527 1.4165
-0.148392 -0.0791622 1.36076
-0.135767 -0.185747 1.132
0.0665985 -0.35855 1.44683
0.0696162 -0.184623 1.26098
0.0563208 -0.233772 1.33397
-0.124217 -0.270436 1.59341
-0.61137 -0.27608 2.08472
-0.796391 -0.110305 1.89663
-1.04846 -0.155898 2.03643
-0.18394 -0.152484 2.05788
0.108751 -0.148157 1.11982
-0.118429 -0.121117 1.13678
-0.0840306 -0.0704951 1.07829
-0.0451864 -0.0220915 1.14507
-0.121387 -0.143514 1.99451
-0.0900775 -0.328487 2.04236
0.105384 -0.201714 1.09804
0.107312 -0.194159 1.09868
0.0779603 -0.152383 1.14449
-0.168236 -0.170973 2.05327
-0.0388934 -0.12227 2.11145
0.0606181 -0.153242 1.60978
-0.1353 -0.119934 1.60153
-0.301657 -0.139199 2.06507
-0.273026 -0.24055 2.08608
0.0614649 -0.209878 1.67404
0.11387 -0.206571 1.82372
0.0239886 -0.0276022 1.19505
0.0413507 -0.02438 1.1874
0.0471706 -0.036478 1.26347
0.00899279 -0.229411 2.05679
-0.280822 -0.19507 2.08549
-0.135516 -0.243343 1.8447
-0.143915 -0.163393 1.60366
-0.121316 -0.102163 1.13707
-0.029981 -0.343287 1.49664
-0.143354 -0.324572 1.5921
-0.135747 -0.222933 1.36927
-0.145197 -0.146922 1.2617
-0.0636046 -0.0689101 1.1173
0.00399402 -0.0555179 1.37434
0.0679406 -0.149065 1.37352
-0.144239 -0.0216886 1.14588
0.10419 -0.0249187 1.14719
-0.13439 -0.289979 1.30524
-0.505743 -0.291514 1.86448
-0.524964 -0.138358 1.9431
-0.458444 -0.142357 1.90002
-0.154873 -0.115307 1.13172
-0.0225707 -0.0228072 1.14414
-0.159259 -0.119679 1.13119
-0.00120476 -0.0342802 1.16436
-0.127096 -0.203669 1.60287
-0.138518 -0.288083 1.35026
-0.101301 -0.371301 1.60886
0.0697828 -0.189045 1.26059
0.0630831 -0.248544 1.25315
0.0304312 -0.391495 1.76706
-0.144958 -0.151094 1.13527
0.0208567 -0.0431783 1.26805
0.0693784 -0.072508 1.14865
-0.162589 -0.132025 1.2715
-0.128293 -0.148808 1.13706
-0.135452 -0.280071 1.80704
-1.37577 -0.481636 2.0694
-0.294943 -0.316291 2.06509
0.0606081 -0.139735 1.29013
-0.12161 -0.0824585 1.34118
-0.117336 -0.0223781 1.14293
-0.135789 -0.203645 1.81531
-0.135567 -0.146605 1.81696
0.0712809 -0.162903 1.2662
-0.165515 -0.153697 1.31866
0.04233 -0.0346778 1.17548
-0.0738325 -0.0513005 1.3793
-0.0951196 -0.0284659 1.21837
0.0403579 -0.0431252 1.21002
-0.122647 -0.218101 1.42418
-0.127975 -0.0476921 1.1405
-0.12851 -0.0723684 1.16203
0.0697417 -0.14163 1.81414
-0.139005 -0.201727 1.82062
0.0639859 -0.209256 1.67203
-0.146002 -0.28426 1.62043
-0.110248 -0.424548 2.02945
-0.529308 0.237051 2.3798
0.0395573 -0.0267634 1.1793
0.0593105 -0.364957 1.58751
0.0633992 -0.4143 1.87173
-0.152346 -0.341814 1.5861
-0.0484574 -0.042421 1.30577
-0.0482045 -0.349492 1.46692
0.0660037 -0.0865438 1.47717
0.025037 -0.118892 1.81351
0.0633894 -0.238575 1.87865
0.0599849 -0.257338 1.60286
0.0777865 -0.339389 1.80509
0.0677652 -0.239274 1.67182
-0.0558285 -0.118704 1.79997
-0.215164 -0.340167 2.04563
-0.148159 -0.165166 1.8597
0.0702274 -0.240073 1.68002
0.110975 -0.221171 1.81492
0.0334368 -0.13008 1.87915
-0.128489 -0.130367 1.90593
-0.0989075 -0.119455 1.7818
0.0596938 -0.216494 1.65484
0.0638635 -0.180129 1.61989
0.0604144 -0.16673 1.61156
0.105323 -0.327205 1.81351
0.10567 -0.158457 1.83715
-0.0723075 -0.10653 1.69758
-0.492544 -0.174515 1.86597
-0.274993 -0.250492 2.08556
0.00319774 -0.345301 2.13817
0.0101506 -0.090878 1.73893
-0.30161 -0.151161 2.08049
-0.138271 -0.167074 1.83489
-0.0536933 -0.157094 2.02652
0.0133949 -0.246124 2.05189
0.0123163 -0.263268 2.06113
0.00239758 -0.206393 2.04848
-0.127617 -0.22871 1.65031
0.102263 -0.226243 1.82016
0.0114165 -0.129478 1.88405
-0.0816922 -0.131904 1.90902
0.0376742 -0.108577 1.75023
-0.276379 -0.271024 2.084
-0.0607647 -0.130319 1.94746
-0.14952 -0.242899 1.85634
0.0846861 -0.343693 2.05178
-0.174914 -0.158313 2.05856
-0.079069 -0.134562 1.89217
-0.136828 -0.140657 1.85534
0.0438397 -0.128754 1.8824
0.0616783 -0.247415 1.87582
-0.0540461 -0.388934 2.0468
-0.410264 -0.33387 2.08946
0.0640867 -0.146298 1.82735
0.101506 -0.219702 1.81599
-0.130997 -0.149488 1.65783
0.0642178 -0.292816 1.82167
-0.278323 -0.270209 2.0866
-0.146478 -0.150286 2.0367
-0.124211 -0.248383 1.80635
-0.0369156 -0.125484 1.99214
-0.0231012 -0.139624 1.9738
-0.135736 -0.246959 1.83615
0.0856613 -0.271062 2.04874
0.0914635 -0.264404 1.80582
0.057874 -0.115867 1.65631
-0.127225 -0.157692 1.65067
-0.136502 -0.313026 1.80749
0.0619119 -0.146259 1.88274
-0.139493 -0.261458 1.87247
-0.110884 -0.387737 2.03129
-0.110074 -0.146412 2.00213
0.0877361 -0.172899 2.05609
0.0279939 -0.102381 1.79447
-0.0341697 -0.123239 1.83768
0.0395474 -0.0982172 1.67312
-0.0554208 -0.112222 1.76992
0.0361854 -0.128928 1.8323
0.0534131 -0.113613 1.75473
0.0713081 -0.342861 1.79998
-0.0412456 -0.109099 1.75027
0.0616373 -0.1998 1.6623
-0.137559 -0.272969 1.82159
0.0622273 -0.266411 1.65673
0.0625087 -0.133598 1.97076
-0.0532636 -0.148216 2.0377
0.061137 -0.289112 1.8722
-1.70553 -0.301566 2.06903
-0.142668 -0.180866 1.88837
-0.154606 -0.138369 1.94727
0.0614149 -0.221264 1.81758
-0.150693 -0.146373 1.84375
0.000834026 -0.167691 2.0509
0.0436504 -0.313612 2.0611
0.0442709 -0.31687 2.05321
-0.13633 -0.265097 1.86809
-0.0245214 -0.384493 2.05828
-0.19262 -0.388291 2.01684
0.0507793 -0.152146 2.01708
-0.0130816 -0.342973 2.02172
-0.077826 -0.340246 2.06899
-0.182385 -0.139897 1.98005
-0.0494568 -0.140233 1.96558
-0.136719 -0.226394 1.87109
-0.0718326 -0.145613 2.007
-0.00310119 -0.15431 2.01367
-0.816943 -0.36371 2.08709
-0.377415 -0.125674 2.02111
-0.48019 -0.161797 2.08897
-0.0191412 -0.148497 2.02081
-0.0774601 -0.341563 2.0727
-0.0249764 -0.348835 2.07469
-0.0787643 -0.344593 2.061
-0.0244927 -0.329262 2.07339
-0.0759676 -0.334927 2.05838
-0.233884 -0.348602 2.06999
-0.233217 -0.341997 2.06555
-0.0910801 -0.362111 2.07141
0.04884 -0.305765 2.06175
-1.73284 -0.0358911 2.06692
-0.415587 -0.123538 1.94745
-0.506538 -0.320467 1.86808
-0.587082 -0.32287 2.08478
-2.74069 -0.192784 1.8073
-0.154197 -0.296001 1.97441
0.0778268 -0.114965 1.76864
-0.0351568 -0.124447 1.84336
-0.130074 -0.318478 1.79313
0.0737071 -0.343692 1.80183
-0.00585008 -0.112819 1.78328
0.113865 -0.23534 1.82369
-0.147288 -0.394671 1.90145
-0.228697 -0.346216 2.06209
-0.208541 -0.14774 2.03536
-0.22425 -0.346282 2.0621
-0.0637197 -0.15687 2.04353
-0.14257 -0.229512 1.84809
0.0556532 -0.141059 1.94663
-0.675985 -0.342779 2.10589
-0.876836 -0.145351 2.08918
-0.148018 -0.348754 1.90475
0.0442438 -0.321478 2.08093
-0.105878 -0.146469 2.01136
-0.135936 -0.170737 1.81476
-0.138576 -0.228944 1.84094
0.0180887 -0.132737 1.89414
-0.0930852 -0.345073 2.0584
0.0504878 -0.121354 1.91542
-0.168096 -0.151851 2.03867
-0.082221 -0.141033 1.97002
0.0345787 -0.136959 1.95699
-0.18416 -0.151231 2.05093
-0.136913 -0.205965 1.84592
0.0424135 -0.248921 1.60522
-0.128451 -0.23037 1.65017
-0.0582521 -0.132789 1.90471
0.0592683 -0.148807 1.60867
0.0758423 -0.305976 1.86293
-0.390607 -0.134049 2.05989
0.0941737 -0.266207 1.81044
-0.133926 -0.23947 1.8101
0.0412143 -0.402633 2.05804
-0.106055 -0.318172 2.04757
-0.125623 -0.250368 1.59566
0.0734139 -0.120356 1.8292
-0.199369 -0.334191 2.0453
0.0633314 -0.130946 1.61323
-0.156389 -0.275288 1.61742
-0.38839 -0.133344 2.03162
-0.439001 -0.333099 2.09486
-1.11662 -0.173572 2.06904
-0.251514 -0.176275 2.05611
-0.0237023 -0.372847 2.06841
0.0533716 -0.351069 2.06399
-0.0880911 -0.308024 2.0469
0.0614708 -0.239193 1.8744
0.0614931 -0.271459 1.874
-1.42065 -0.509922 1.88547
-0.0231431 -0.331373 2.08618
-0.580836 -0.250727 2.09116
0.0857759 -0.320137 2.04448
0.0393126 -0.296641 2.05931
-0.0307187 -0.311958 2.06363
-0.0322725 -0.331725 2.08957
-1.64885 -0.269426 1.84396
-1.6015 -0.347986 1.8037
-1.57724 -0.281925 1.81377
0.0105535 -0.248934 2.05144
0.0633587 -0.241943 1.88199
-0.275067 -0.2713 2.08254
-0.138254 -0.166947 1.83507
0.0250918 -0.134001 1.89375
0.0597853 -0.247388 1.82975
0.0619559 -0.286493 1.8197
-0.135113 -0.230201 1.81235
0.107064 -0.139519 1.81513
-0.022106 -0.11184 1.77398
0.0959587 -0.117796 1.7892
0.0634034 -0.177594 1.82014
0.0676061 -0.243972 1.81583
0.0521604 -0.321465 2.05938
-1.70157 -0.279083 2.06887
0.0884502 -0.297448 1.82559
-0.124711 -0.133843 1.92633
-0.140947 -0.198701 1.843
0.0600619 -0.278519 1.86885
-0.138445 -0.175994 1.82142
-1.06744 -0.19435 1.85747
-1.00851 -0.158742 1.85374
-1.35534 -0.481542 2.06959
0.0532844 -0.31445 1.85046
0.0630344 -0.29608 1.81714
-1.03782 -0.347664 1.84414
-0.744267 -0.374849 1.8695
-1.06158 -0.188222 1.85763
-0.97414 -0.491008 1.8553
-0.909959 -0.335044 1.85505
-0.880707 -0.394549 1.85713
-1.16325 -0.25956 2.08065
-0.338616 -0.330295 2.0831
0.0133601 -0.233464 2.0489
0.0630267 -0.280485 1.81258
-1.05337 -0.155797 2.0373
-0.969745 -0.139793 2.05222
0.0623668 -0.22445 1.82086
0.077893 -0.171465 1.81807
-0.089295 -0.125694 1.84931
0.0830501 -0.314932 1.82032
0.0181314 -0.125542 1.84729
-0.0809598 -0.125247 1.86155
-0.011801 -0.130482 1.84579
0.0839732 -0.265854 1.8155
-0.786992 -0.416716 2.08279
-0.465334 -0.1412 1.87671
-0.335443 -0.133463 1.93142
-0.305029 -0.24639 2.11503
-0.0448229 -0.149326 2.02572
-0.00187238 -0.225186 2.05111
-0.0366929 -0.146801 2.0228
-0.0426115 -0.170831 2.05475
-0.142534 -0.401066 1.92039
0.0418226 -0.128306 1.87771
-0.0107415 -0.120874 1.84002
-0.272806 -0.258996 2.08233
-0.133006 -0.305463 1.80045
-0.135442 -0.255409 1.8188
-0.079719 -0.353958 2.06669
-0.175864 -0.14518 2.00357
-0.235716 -0.151484 2.0589
-1.16094 -0.0606903 1.96476
-0.0152268 -0.129413 1.89703
-0.140992 -0.139158 1.88424
0.0633614 -0.172445 1.81527
0.0413143 -0.339265 2.06028
0.0480792 -0.34295 2.05757
0.0728109 -0.334158 1.91442
-0.130967 -0.198094 1.80729
-0.128792 -0.141703 1.85741
-0.139393 -0.329562 1.87428
0.0422077 -0.132862 1.8507
-0.245073 -0.142152 2.05603
-0.275481 -0.25176 2.0793
0.0850267 -0.268419 1.81919
-0.133879 -0.246121 1.80979
0.0597551 -0.175143 1.87914
0.0777433 -0.171738 1.81681
0.0142176 -0.109114 1.75603
0.116077 -0.221393 1.82862
0.0965835 -0.329437 1.80469
-0.0886422 -0.353494 2.05964
0.00784458 -0.245646 2.05273
-0.0300408 -0.307218 2.04312
-1.13284 -0.160814 2.07854
-0.0596064 -0.144661 2.00135
0.0100575 -0.253402 2.05999
-0.000315731 -0.313574 2.06948
-0.20891 -0.335753 2.04574
0.0865669 -0.170648 2.05267
0.0128449 -0.24028 2.05292
0.124505 -0.144231 1.84912
0.0639712 -0.238503 1.81665
-0.141805 -0.291247 1.83959
-0.10475 -0.131209 1.90342
-0.239875 -0.147941 2.05951
-0.533064 -0.361766 2.08461
-0.430902 -0.382746 2.08056
-0.153795 -0.122499 1.85675
0.0708961 -0.268627 1.81258
0.0650923 -0.307299 1.81721
-0.198294 -0.359742 1.97496
-0.11402 -0.126005 1.86087
-0.134426 -0.222663 1.8124
0.0858079 -0.13031 1.80699
-0.0758823 -0.336054 2.04813
-0.869061 -0.468858 1.95544
-1.61985 0.0581806 2.14238
-1.49473 -0.485465 1.92347
-0.989658 -0.353808 2.0626
-0.650494 -0.331348 2.08843
-0.311446 -0.299528 2.07933
-0.200023 -0.149263 2.04624
-0.192957 -0.139339 2.02224
-0.120825 -0.282094 1.61228
-0.135742 -0.152874 1.59358
0.00396765 -0.0992107 1.68081
-0.140642 -0.178436 1.6
-0.138463 -0.252135 1.59053
0.0408073 -0.0953247 1.67519
0.0607014 -0.132008 1.61595
-0.0603438 -0.319411 2.07449
-0.0313323 -0.329407 2.08259
0.0622394 -0.127675 1.61706
-0.140872 -0.126259 1.59706
0.109332 -0.232083 1.80988
0.00369086 -0.108762 1.8576
0.0632505 -0.233131 1.81687
0.0772369 -0.3087 1.80265
-0.133861 -0.228924 1.80993
0.100809 -0.350416 1.80794
0.0631717 -0.225765 1.87742
0.0569561 -0.200084 1.65176
0.0957873 -0.266977 1.81584
-0.0334468 -0.117996 1.81584
0.00728725 -0.0927994 1.62157
-0.122654 -0.1115 1.6424
-0.142392 -0.162342 1.59882
-0.127864 -0.228535 1.60488
-0.136123 -0.101742 1.6055
0.0607724 -0.0946722 1.59679
-0.198698 -0.33627 2.04195
-0.0848619 -0.141677 2.01427
-0.152411 -0.144091 1.98764
0.0565738 -0.325831 2.07813
-0.0622479 -0.144155 1.99405
0.0853484 -0.229109 2.04881
-0.0613872 -0.139665 2.01228
-1.68965 -0.213584 1.84237
-0.136594 -0.208296 1.87159
-0.0439262 -0.138978 1.95799
0.0130746 -0.32087 2.06309
-0.136167 -0.166859 1.87332
0.0280234 -0.1498 1.97508
-0.138932 -0.254309 1.87299
-0.0319308 -0.13634 1.97424
-0.0451833 -0.148005 2.03107
-0.135055 -0.219559 1.8475
-0.137234 -0.16636 1.87582
-0.104114 -0.134789 1.92328
0.0779146 -0.313665 1.89141
-0.144666 -0.294219 1.88835
-0.135514 -0.224414 1.8444
-0.0605948 -0.137554 1.98703
-0.233749 -0.353195 2.06549
-0.172438 -0.321112 2.04993
-0.025233 -0.341176 2.05298
-0.00745818 -0.264765 2.0525
-0.0667367 -0.131447 1.72661
0.0945232 -0.266563 1.81256
-0.121529 -0.0928424 1.59938
-0.156233 -0.229104 1.58832
-0.161747 -0.245279 1.58072
-0.195586 -0.281453 1.60414
-0.185599 -0.126801 1.63449
0.0597043 -0.206758 1.60587
-0.181311 -0.227107 1.58706
-0.200501 -0.284456 1.61057
-0.125905 -0.165996 1.59854
-0.126073 -0.207094 1.64724
0.0381971 -0.314241 2.05345
-0.124669 -0.210787 1.59726
0.0563065 -0.207822 1.65002
0.083329 -0.267165 1.81478
-0.0730193 -0.346894 2.07406
-0.0787553 -0.352293 2.06064
0.0116665 -0.24884 2.05878
-0.135534 -0.162554 1.81653
0.057736 -0.253334 1.80738
-0.0403655 -0.491055 2.22265
-0.172413 -0.299999 2.05153
-0.13552 -0.149625 1.81718
-0.116039 -0.205248 1.58468
0.0802744 -0.420389 2.0181
-0.128348 -0.261126 1.65094
-0.135386 -0.259161 1.81293
-0.441458 -0.185664 1.85995
-0.146912 -0.103331 1.60442
0.0689198 -0.12327 1.82773
0.00746164 -0.24519 2.05246
-0.125517 -0.126283 1.64749
-0.164565 -0.142549 2.03158
-0.211181 -0.337425 2.06358
-0.201214 -0.154134 2.01807
0.0635471 -0.276836 1.8791
-0.138707 -0.159717 1.82185
-0.136897 -0.186075 1.83442
0.0630139 -0.207445 1.88036
-0.105881 -0.139752 1.97197
0.0585214 -0.139735 1.65682
0.0331763 -0.289336 1.99748
-0.0811323 -0.327732 2.05535
-1.57367 -0.174667 1.84441
0.152201 -0.274155 1.89084
-0.136293 -0.321241 1.86667
-0.440766 -0.208631 1.86186
-0.931428 -0.47248 1.94214
0.0672374 -0.263925 1.81673
-0.184794 -0.209495 1.59038
-0.179006 -0.226864 1.58553
-0.170447 -0.248296 1.56163
0.112347 -0.235223 1.82115
0.00349544 -0.148332 2.01337
0.0347128 -0.303764 2.06967
-0.173386 -0.287649 2.05275
0.0647813 -0.306695 1.81668
-0.132946 -0.292593 1.65942
0.0590739 -0.268652 1.64426
0.0861883 -0.268514 1.82015
0.0778544 -0.125865 1.82381
0.0581706 -0.215797 1.6526
0.0379178 -0.0998704 1.81289
-0.13743 -0.222242 1.85634
-0.133967 -0.235832 1.83759
-0.132317 -0.248644 1.84541
-0.106459 -0.146415 2.01323
-0.120448 -0.292001 1.58865
-0.039816 -0.339091 1.88259
-0.105552 -0.310065 2.05589
-0.142252 -0.243202 1.59447
-0.124694 -0.139208 1.64432
-0.165619 -0.27034 1.59529
-0.122665 -0.121193 1.61743
-0.143515 -0.213604 1.59595
0.0614575 -0.244322 1.69872
0.0978908 -0.16051 1.81435
0.0626974 -0.152643 1.82258
-0.0598271 -0.113378 1.86267
0.0150632 -0.238185 2.06345
0.0636388 -0.165392 1.82194
0.0630838 -0.159013 1.82209
-0.122068 -0.129196 1.6409
0.0603649 -0.25305 1.65287
-0.141118 -0.236652 1.85291
-0.136815 -0.120113 1.81909
-0.135128 -0.10204 1.70067
-0.127096 -0.101206 1.60716
-0.126865 -0.138035 1.60425
0.0721265 -0.362334 1.80451
0.0737223 -0.267813 1.5491
-0.132506 -0.136748 1.98113
-0.214151 -0.33924 2.06115
-0.0876104 -0.307267 2.04359
0.02689 -0.289349 1.95734
0.012779 -0.28481 2.05908
-0.158258 -0.151342 2.04413
-0.0996654 -0.145706 1.95152
-0.0383611 -0.145571 2.00242
-0.240199 -0.413254 2.06858
-0.14349 -0.203973 1.59681
0.0614292 -0.285634 1.60874
-0.166002 -0.16488 1.59186
-0.179096 -0.272284 1.58571
0.0589024 -0.193081 1.60674
-0.792004 -0.369145 2.08323
-0.856402 -0.455435 2.07585
-0.157275 -0.147708 2.01533
-0.0151145 -0.340889 2.08301
0.0936087 -0.122924 1.81396
0.0807906 -0.129958 1.81888
-0.17084 -0.221162 2.04997
-0.102093 -0.118369 1.80668
-0.137511 -0.167508 1.83245
-0.147956 -0.282753 1.60118
0.0583861 -0.162556 1.60811
0.0845291 -0.294767 1.81753
0.0440387 -0.316414 2.05349
0.0362859 -0.11967 1.8226
-0.133129 -0.287223 1.80428
0.00268195 -0.29376 2.05835
0.0717292 -0.153738 2.05653
0.0595468 -0.269637 1.64619
-0.478092 -0.139553 2.02563
0.00870324 -0.134921 1.86084
-0.133817 -0.242196 1.81023
0.0789586 -0.171153 1.82012
-0.139872 -0.225615 1.84916
-0.0511143 -0.178856 2.03768
-0.233901 -0.311358 2.2997
-0.124704 -0.229737 1.5955
0.0124251 -0.12079 1.81878
0.0573475 -0.213365 1.65264
0.0563649 -0.214369 1.65052
0.0588013 -0.252814 1.60224
-0.123839 -0.265937 1.59052
-0.154528 -0.262098 1.60088
0.061683 -0.180076 1.88036
-0.165001 -0.185909 1.59365
-0.0597764 -0.087518 1.57303
-0.137558 -0.283191 1.83116
-0.130016 -0.318732 1.79793
-0.161621 -0.409676 1.98865
-0.0140998 -0.398291 1.83687
-0.126064 -0.240139 1.64656
0.0117671 -0.119076 1.81705
0.0625612 -0.397577 1.79804
-0.158333 -0.229636 1.59853
-0.131417 -0.278478 1.82111
0.0585487 -0.307679 1.59852
-0.179946 -0.266448 1.58103
-0.152666 -0.135546 1.60141
-0.13456 -0.193228 1.81447
-0.0210166 -0.353871 2.14783
-0.151155 -0.24984 1.59911
0.0592938 -0.106293 1.6109
-0.0746991 -0.0790762 1.5358
-0.208404 -0.238325 1.64284
-0.203691 -0.203074 1.62297
-0.178838 -0.198401 1.57491
-0.133357 -0.275667 1.80494
0.0795256 -0.287435 1.81513
-0.137007 -0.178878 1.81813
-0.134761 -0.206668 1.80538
-0.134651 -0.191372 1.81348
-0.140711 -0.324388 1.87641
0.0597247 -0.219177 1.84118
0.0614796 -0.283698 1.87276
-0.138159 -0.206148 1.84851
-0.136017 -0.238255 1.81142
-0.136603 -0.14788 1.87342
0.0624022 -0.246235 1.81914
0.0648987 -0.294271 1.81744
-0.140692 -0.293494 1.81609
0.0682394 -0.148568 1.83532
0.0593199 -0.293238 1.8204
0.0621907 -0.171395 1.81953
-0.14133 -0.179314 1.88675
-0.0574927 -0.50561 2.25305
0.0600197 -0.279483 1.86718
0.0598834 -0.259067 1.87127
-0.0586373 -0.148922 1.98309
0.0800051 -0.171053 1.82273
-0.0331456 -0.110787 1.78709
0.0985277 -0.305865 1.80523
-0.189348 -0.235785 1.59662
-0.141792 -0.269291 1.38041
-0.028242 -0.0660261 1.45565
-0.0302874 -0.0672886 1.4478
0.0744001 -0.190748 1.26878
0.066623 -0.0279336 1.5334
-0.121589 -0.315894 1.76886
-0.136629 -0.299275 1.82263
-0.128336 -0.130112 1.74935
-0.134457 -0.263905 1.80953
-0.150365 -0.1697 1.91497
-0.00979877 -0.291666 2.05542
0.0468513 -0.34116 2.05127
-0.0363456 -0.148388 2.01502
-0.151457 -0.15053 2.03014
-0.161537 -0.0940402 1.64515
-0.162932 -0.241328 1.58878
-0.148111 -0.260455 1.59027
-0.180143 -0.106359 1.62419
-0.123034 -0.162735 1.36824
-0.118147 -0.0878971 1.35253
0.0656846 -0.086505 1.37508
0.0651641 -0.264601 1.42787
0.0659304 -0.206148 1.37043
-0.0212538 -0.262818 2.05145
-0.120185 -0.182532 1.41632
-0.151323 -0.245581 1.59244
-0.134294 -0.182945 1.37348
-0.872573 0.0844899 1.90407
-0.860601 -0.152774 2.0849
-0.124442 -0.155196 1.37121
-0.161516 -0.178391 1.57145
-0.122278 -0.215401 1.41626
-0.0561844 -0.399023 1.76955
0.0620294 -0.133432 1.42375
-0.128268 -0.121479 1.36759
-0.339164 -0.127888 2.04198
-0.350484 -0.125464 1.97823
0.0701946 -0.218795 1.33841
-0.450434 -0.322459 1.8636
-0.127038 -0.190808 1.60223
-0.117403 -0.207032 1.40436
0.056221 -0.257705 1.32849
0.0942542 -0.266542 1.81452
-0.140754 -0.229507 1.84535
-0.89365 -0.475454 2.04102
0.0749722 -0.133911 1.30407
0.0728957 -0.124043 1.3083
0.0720525 -0.225726 1.56025
-0.43683 -0.13042 2.00685
-0.0300161 -0.0884499 1.6045
0.0381255 -0.298339 2.05659
-0.130937 -0.160018 1.59904
-0.466892 -0.138924 2.0004
-0.150372 -0.148617 1.36871
-0.245226 -0.145513 2.07326
-0.150678 -0.148186 1.36651
-0.123626 -0.117937 1.42876
-0.131187 -0.209433 1.36829
0.0679489 -0.180944 1.2852
-0.0308983 -0.332945 2.08539
0.0571789 -0.227172 1.59975
0.056602 -0.209905 1.59983
0.0632667 -0.18367 1.37246
-0.166681 -0.192071 1.58712
-0.0744474 -0.0573438 1.42096
-0.127431 -0.228649 1.44571
-0.129103 -0.263076 1.36721
-0.120973 -0.0807856 1.33991
0.0672771 -0.154739 1.36931
0.0518468 -0.205376 1.45235
-0.14432 -0.177852 1.61897
0.224445 -0.0461254 2.22432
-0.135113 -0.245288 1.8115
0.0837155 -0.367359 1.95613
0.0670598 -0.190166 1.34293
0.0751401 -0.126748 1.8094
-0.162092 -0.133548 1.58772
-0.483858 -0.170768 1.83866
0.0758918 -0.327979 1.81561
-0.130882 -0.170066 1.37169
0.0164378 -0.2302 2.0466
-0.0280381 -0.34595 2.08581
0.0584524 -0.192136 1.60674
-0.125555 -0.138919 1.60211
0.0558259 -0.227207 1.59703
0.0249839 -0.396733 1.88348
-0.219639 -0.34045 2.07403
-0.116132 -0.172305 2.0473
-0.249175 -0.148343 2.03536
-0.0934046 -0.169783 1.34472
-0.029328 -0.0725646 1.51012
0.0587261 -0.284339 1.40144
-0.0528966 -0.0909407 1.6274
0.066316 -0.272482 1.69162
-0.145498 -0.0894453 1.606
-0.00715332 -0.267132 2.03932
-0.0219303 -0.333021 2.05487
-0.0498046 -0.0904811 1.56147
-0.152193 -0.155061 1.60123
0.0085217 -0.247223 2.0364
0.0579105 -0.122042 1.6597
-0.177227 -0.136302 1.61854
0.0603298 -0.109153 1.41992
-0.171152 -0.177131 1.54081
-0.125 -0.137453 1.37063
0.0678985 -0.0944184 1.59701
-0.858816 -0.466273 1.96943
-0.120384 -0.0885695 1.42184
-1.47609 -0.345788 2.07399
-1.83922 -0.121054 2.07833
-0.844983 -0.424862 2.07795
-0.0907041 -0.342991 2.11016
-0.440269 -0.138984 1.86296
-0.0123727 -0.137023 1.95586
-0.0132323 -0.380789 1.64159
0.0695503 -0.239434 1.38442
-0.123624 -0.202854 1.42632
0.0652729 -0.238085 1.36842
-0.120669 -0.246411 1.36476
-0.132106 -0.0870243 1.36215
-0.119693 -0.117177 1.37074
-0.11733 -0.143038 1.36295
-0.126233 -0.137557 1.60024
-0.13242 -0.263992 1.5972
-0.129392 -0.107211 1.66463
0.0654145 -0.135921 1.32075
-0.129713 -0.128468 1.60594
-0.123766 -0.236266 1.59332
-0.139669 -0.164768 1.60045
-0.0575622 -0.122232 1.84032
0.0981705 -0.141691 1.7577
0.0615381 -0.225033 1.81753
-0.0568844 -0.332015 2.0906
0.058981 -0.208347 1.65412
-1.32544 -0.375825 2.07055
-0.123704 -0.140761 1.6447
0.102651 -0.287642 1.81472
0.0527948 -0.118934 1.77698
-0.155019 -0.151984 1.8757
-0.0210377 -0.366657 2.05243
-0.134545 -0.252523 1.85424
0.0794312 -0.158908 2.05084
-0.00803197 -0.151438 2.03427
-0.0798408 -0.337531 2.06473
-0.0822776 -0.146495 2.03305
0.0703028 -0.144175 1.8437
-0.157355 -0.10895 1.57275
0.0589517 -0.185722 1.36681
-0.148572 -0.0971518 1.59743
0.0665183 -0.270348 1.47981
0.060271 -0.13385 1.41886
0.0682316 -0.119824 1.31194
0.0657792 -0.170567 1.32567
-0.12312 -0.168466 1.3675
-0.156442 -0.273838 1.51407
-0.120788 -0.206999 1.36678
0.0647125 -0.125247 1.37513
0.0610075 -0.134536 1.37242
-2.38052 -0.202731 2.042
0.00886393 -0.301349 2.02904
0.055975 -0.253354 1.59541
-0.135177 -0.102071 1.60531
-0.415558 -0.369722 2.07139
0.0711684 -0.241387 1.5438
-0.132502 -0.0927351 1.37177
0.0758979 -0.162092 1.26372
-0.129796 -0.259809 1.36078
-0.158757 -0.309337 2.02614
-0.474094 -0.140371 2.08546
0.0688374 -0.13769 1.26748
0.0696679 -0.137563 1.27011
-0.0741181 -0.0470384 1.36258
-0.106845 -0.286787 1.35419
0.067233 -0.207032 1.32686
0.0643587 -0.157978 1.21412
0.0680419 -0.238136 1.81187
0.0724726 -0.2433 1.57055
0.071245 -0.082481 1.54359
-0.122645 -0.189141 1.37173
-0.133372 -0.114738 1.75854
0.0427374 -0.342787 2.0768
-0.129489 -0.147208 1.59732
0.00460836 -0.0976747 1.68629
-0.161087 -0.132385 1.57365
0.0629097 -0.108657 1.42661
-0.0517516 -0.079214 1.53541
-0.111745 -0.193566 1.44775
-0.146501 -0.0886665 1.60808
-0.17952 -0.203518 1.59498
-0.14507 -0.229981 1.36929
-0.123368 -0.295486 1.59853
-0.167943 -0.141212 2.06101
-0.168692 -0.138982 2.07538
-0.0947953 -0.172184 2.04661
0.0696166 -0.218549 1.33764
-0.121811 -0.10363 1.37501
-0.122071 -0.0998617 1.34534
-0.15703 -0.143258 1.36444
-0.113875 -0.225206 1.39568
-0.143077 -0.0856995 1.3723
0.0640189 -0.184052 1.37518
-0.0265352 -0.0612797 1.4072
0.0684009 -0.140031 1.28835
0.0700272 -0.218302 1.25908
-0.309046 -0.29945 2.07702
0.0735007 -0.212944 1.56581
