# .PCD v0.7 - Point Cloud Data file format
VERSION 0.7
FIELDS x y z
SIZE 4 4 4
TYPE F F F
COUNT 1 1 1
WIDTH 1723
HEIGHT 1
VIEWPOINT 0 0 0 1 0 0 0
POINTS 1723
DATA ascii
0.22528 -0.144565 1.59756
-0.0238706 -0.213214 1.11477
0.272739 -0.245183 1.32048
-0.25281 -0.255651 1.26942
-0.0560486 -0.278998 1.2887
-0.196625 -0.280286 1.31189
-0.0617978 -0.19553 1.16832
0.0694247 -0.234043 1.12071
-0.10595 -0.269537 1.27704
0.0507561 -0.199202 1.26266
0.350445 -0.252831 0.987423
0.327514 -0.122203 1.08004
0.140553 -0.171473 1.07493
-0.348136 0.176677 0.696237
-0.194002 0.172047 0.667125
-0.279865 0.148525 0.649189
0.0489627 -0.23069 0.970804
-0.465095 -0.107726 1.00441
-0.5103 -0.343225 1.0109
0.213923 0.300547 0.883881
0.506238 0.0205733 1.14383
0.524807 0.153476 1.25097
0.164793 0.0117042 0.789509
0.156203 -0.0481361 0.863408
0.338807 -0.22072 1.03232
0.0958092 -0.0597713 0.946675
0.404787 -0.0712212 0.939778
0.424204 -0.284189 1.03158
-0.512696 -0.260952 1.04152
0.253916 0.130921 0.897455
0.500156 -0.15662 1.15464
-0.00960595 -0.284927 0.985856
-0.225018 0.239449 0.928827
0.319362 0.0635418 0.930986
-0.447439 -0.113896 0.991148
0.320457 0.251834 0.993943
0.147173 -0.0628612 0.921758
0.381718 -0.172658 1.04747
0.0820099 -0.130233 1.02894
0.147951 -0.133599 1.07968
-0.0440103 -0.31879 0.957557
0.314116 0.00201759 0.800741
0.236905 0.0733731 0.771004
0.340755 0.27257 0.990807
0.232903 0.230986 0.960874
-0.26871 0.276664 0.810413
0.506848 0.229798 1.06077
0.311606 -0.224413 1.05642
0.94155 -0.450657 2.33228
0.0965124 -0.061806 0.949168
0.311933 0.00212064 0.787615
-0.000979188 0.0245441 1.12318
-0.202624 0.19764 0.872266
-0.386534 -0.22951 0.876012
-0.510048 -0.328322 1.08236
0.0844865 -0.285157 1.36317
-0.320016 -0.00707561 0.800864
-0.562221 -0.197214 1.26092
-0.144926 0.105546 0.668512
-0.228392 -0.013182 0.770278
0.184401 -0.354935 1.55426
-0.558369 -0.350592 1.16312
-0.430326 0.0127076 0.792633
-0.269052 -0.0278319 0.799438
-0.556656 -0.325281 1.10848
1.72181 0.047846 1.08223
0.464688 -0.264829 1.23865
2.42655 0.773938 0.406169
1.69033 0.171113 1.11546
0.453914 -0.254342 1.23095
-0.0939352 -0.247551 1.25681
-0.166063 -0.285339 1.32736
0.452156 -0.283931 1.13459
0.186938 -0.266107 1.57801
0.169634 -0.305618 1.46628
-0.220825 -0.282993 1.31652
-0.264111 -0.272312 1.30337
-0.0953652 -0.249876 1.25904
-0.146077 -0.272072 1.30433
-0.297711 -0.270844 1.29052
-0.266948 -0.016487 0.796959
0.341212 0.277292 1.00601
-0.151865 0.0541247 0.685659
0.381263 -0.119515 1.0089
0.148031 -0.204314 1.05528
0.406252 -0.276654 1.01081
-0.0353616 -0.288366 0.993704
0.304668 0.0246691 0.795859
-0.201216 -0.239827 1.1822
0.439971 -0.316031 1.48867
0.446543 -0.212895 1.26877
0.136396 -0.244749 1.27287
0.477807 -0.271493 1.35977
-0.518292 -0.22782 1.24113
-0.23208 -0.224609 1.22249
-0.447509 -0.315183 1.07582
-0.521139 -0.311622 1.11739
-0.32101 -0.380229 1.08767
-0.344351 -0.307898 1.18339
-0.558515 -0.13229 1.30005
-0.521166 -0.326666 1.12499
0.135167 -0.316729 1.51536
-0.424419 -0.315948 1.36939
-0.2955 0.115765 0.839579
-0.193982 -0.322437 1.36118
-0.145687 0.106794 0.667868
0.257444 -0.421982 1.46937
-0.1753 -0.0280789 0.81408
-0.57573 -0.201977 1.25014
-0.277765 0.212105 0.724139
-0.550043 -0.347181 1.16798
-0.126067 -0.0173522 0.857632
-0.449347 -0.32238 1.35124
0.291097 -0.507073 1.55402
-0.395728 -0.335962 0.817567
-0.568676 -0.352178 1.15887
-0.386378 -0.292037 1.31919
-0.521641 -0.143344 1.0587
-0.348334 0.310565 0.777983
-0.547822 -0.213616 1.14934
-0.00246064 -0.317947 1.44645
0.248585 -0.0353028 0.924821
-1.93951 -1.46408 4.4404
-0.344145 -0.298814 0.819728
-0.551956 0.0789871 1.14573
-0.365208 -0.221792 1.21624
-0.424438 0.0264535 0.776516
-0.477106 -0.310932 1.08834
-0.431145 -0.319571 1.10842
-0.413001 -0.259597 1.29015
-0.386071 -0.369249 1.01988
-0.570992 0.0127393 1.16095
-0.596236 0.0250663 1.13514
0.284734 -0.137957 1.10256
0.398048 -0.197862 1.05027
-0.0444399 -0.268612 0.949873
0.23206 -0.161127 1.08063
-0.0745892 -0.0322251 0.88653
0.395324 -0.128054 1.06077
0.47009 -0.148321 1.10304
0.625314 -0.400969 1.30295
0.294288 0.0828866 0.856889
-0.0518454 -0.0085655 0.716025
0.337729 -0.191515 1.04495
-0.195931 0.209687 0.683606
-0.381882 -0.221889 0.86419
-0.502423 -0.0977457 1.08647
-0.369461 0.0452303 0.721904
-0.547267 0.0549824 1.05657
-0.357938 0.063427 0.709376
-0.549459 -0.265197 1.14871
-0.216514 0.12405 0.707859
-0.411331 -0.252999 1.28852
1.65083 -0.119292 1.57454
-0.414463 -0.255267 1.288
0.252863 -0.458367 1.4593
0.24668 -0.479596 1.54991
0.310448 -0.47459 1.47227
0.280198 -0.30997 1.48826
-0.510758 -0.25298 1.03312
-0.43757 0.220828 0.943228
-0.36693 -0.317831 1.13637
-0.525115 -0.259203 1.02764
-0.536431 -0.139549 1.13016
0.0436363 0.0642815 0.851869
-0.556486 -0.189675 1.26681
-0.516249 -0.146988 1.0555
-0.346549 -0.31125 1.14407
-0.280321 -0.218955 1.44148
-0.508327 -0.341267 1.13369
-0.453674 -0.13774 1.43542
-0.104931 -0.319031 1.35115
-0.384025 -0.290875 1.32076
-0.283683 0.00177445 0.809859
-0.267267 0.176138 0.658554
0.391957 -0.193839 1.03775
0.150588 -0.177517 1.06683
0.384201 -0.0375673 0.933968
-0.510585 -0.273473 1.05836
0.173264 -0.0922028 0.98168
0.125537 -0.0637105 0.928659
0.369171 -0.194636 1.08303
0.343001 -0.0911724 1.01872
0.243949 -0.205574 1.0687
0.472179 -0.0422263 0.979364
-0.459631 -0.185656 1.00045
0.2408 0.137504 0.879479
-0.349081 0.330472 0.773111
-0.111353 0.298643 0.844034
-0.428589 -0.261576 1.27621
-0.26868 0.976825 -0.432896
-0.727202 0.880202 -0.63403
-0.527818 0.992028 -0.488412
-0.35584 -0.218726 1.21631
-0.756242 0.685608 -0.300592
-0.407977 -0.312283 1.13767
-0.728447 0.938181 -0.712151
-0.0385649 -0.302496 0.942128
0.0807385 -0.114398 0.994016
-0.386194 -0.235266 0.810882
-0.486459 -0.107818 1.37211
-0.338615 -0.290905 1.29958
-0.33668 0.0435189 0.612849
-0.315126 -0.293412 1.44481
-0.443574 -0.336453 1.11828
0.218229 0.277831 0.902545
0.144978 -0.196759 1.05999
-0.510726 -0.275239 1.06586
-0.505642 -0.297986 1.02405
-0.521687 -0.0855379 1.16483
0.0482472 -0.117445 1.06468
-0.505216 -0.296525 1.02181
-0.247801 -0.0597734 0.795143
0.22069 0.108836 0.947238
0.105604 0.248692 0.963372
-0.0583823 -0.360687 0.952136
-0.199237 -0.215977 1.20369
-0.200041 -0.222599 1.22995
-0.261015 -0.266771 1.28646
-0.256372 -0.275843 1.30867
0.368923 -0.310938 1.10226
0.336597 -0.0601282 0.980833
-0.405369 -0.255109 1.34386
-0.415077 -0.254507 1.31247
-0.496869 -0.294348 1.0779
-0.348293 0.0819629 0.69409
-0.507543 -0.257538 0.997025
-0.404629 -0.22511 1.25677
-0.437559 -0.347251 1.02273
1.60829 0.975832 -0.168169
1.87955 -0.362365 1.58885
-0.473718 -0.0887124 1.37573
2.1962 1.13808 -0.400266
1.40276 0.864412 -0.081501
2.02232 -0.371934 1.60408
1.42237 0.872934 -0.0929349
1.60416 0.972796 -0.166787
-0.166284 -0.29593 1.36704
-0.0158327 -0.206192 1.11636
-0.0484893 -0.314767 1.34557
0.289384 -0.32261 1.46819
0.267408 -0.323063 1.46475
0.248416 -0.485868 1.51548
0.265905 -0.470122 1.48464
0.244278 -0.436212 1.49297
0.293162 -0.480044 1.47753
0.275954 -0.478459 1.47879
0.237823 -0.443536 1.47388
1.74086 0.07084 1.0678
1.66817 0.157854 1.0757
1.86116 -0.0175123 1.37811
1.89954 0.0781479 1.3002
1.81878 0.0650065 1.20209
-0.459054 -0.327454 1.11121
-0.466217 -0.347039 1.16826
-0.224398 -0.25203 1.18659
-0.408848 -0.334531 1.18831
0.293399 -0.20538 1.06483
-0.0796973 -0.0543018 0.932481
0.12717 -0.0577854 0.92814
0.0375449 -0.0477421 0.937349
-0.0822586 -0.065411 0.914819
-0.0578811 -0.0592583 0.939029
0.311567 -0.222372 1.05997
0.277825 -0.153677 1.12572
0.14201 -0.0628747 0.919828
0.127461 -0.0394896 0.870367
-0.0970365 -0.0663751 0.940207
-0.002273 -0.118935 0.956864
0.114848 -0.15841 1.0481
0.339811 -0.113669 1.07418
0.301839 -0.036718 0.935957
0.388135 -0.2801 1.02118
-0.0433268 -0.343718 0.903572
0.40769 -0.273656 0.995056
0.504468 -0.275675 1.12349
0.402976 -0.0714828 0.938309
0.475461 -0.0427816 0.992538
-0.191536 -0.272643 0.91189
0.318449 0.00126024 0.811733
0.244022 0.123622 0.853918
-0.450955 -0.225259 0.952014
-0.465529 -0.122901 1.03245
0.22362 0.132577 0.864207
-0.168059 -0.0633382 0.925309
1.32695 0.338747 0.59122
0.285331 -0.424351 1.56869
-0.504278 -0.121551 1.41717
0.277589 -0.424389 1.56696
-0.248632 0.19845 0.773069
-0.542497 -0.330436 1.13589
-0.126227 0.0557189 0.752405
0.227265 -0.239527 1.24033
0.278525 -0.256826 1.33144
0.204733 -0.256016 1.31816
0.316336 -0.288066 1.48163
0.292183 -0.494848 1.51918
0.285577 -0.495986 1.517
0.209633 -0.311391 1.52172
-0.411516 -0.340259 1.19077
-0.682247 0.446848 0.104087
-0.438158 -0.284356 1.05121
-0.490883 -0.313021 1.09909
-0.552133 -0.179904 1.18225
-0.540744 -0.158112 1.11314
-0.436474 -0.350579 1.02045
-0.439676 -0.341737 1.01863
-0.467391 -0.324689 1.14794
-0.4994 -0.317164 0.950725
-0.413417 -0.259282 1.2911
-0.256186 -0.214965 1.21426
-0.413166 -0.306287 1.06855
0.386297 -0.171595 1.05471
0.111909 -0.106059 1.02117
0.0499264 -0.157994 0.958243
-0.0827685 -0.0134146 0.85314
-0.410351 -0.334567 0.856794
0.321503 0.250324 0.990012
0.232934 0.296029 0.884342
0.051638 -0.233395 0.980897
0.294589 -0.231919 1.07088
0.361983 -0.174562 1.04183
0.299914 -0.17915 1.2015
-0.0232596 -0.321747 0.897529
0.325994 -0.0666327 0.969974
-0.111965 -0.0413223 0.897765
-0.324502 -0.342354 1.13809
0.0707466 -0.0715243 0.971579
0.0545004 0.00904531 0.839161
-0.0919167 -0.00978643 0.843655
-0.194531 0.178571 0.488933
-0.195665 0.167391 0.667342
0.137918 -0.0620578 0.920688
-0.194945 0.0494526 0.537696
-0.471999 0.0634118 1.10456
-0.175025 0.0931019 0.645418
0.157088 0.0820785 0.852668
0.292295 -0.0752627 0.976546
0.133482 -0.134686 1.06582
0.301761 -0.259677 1.24786
0.299077 -0.242635 1.25065
0.31719 -0.350643 1.17481
0.457277 0.16243 1.16683
0.470277 -0.144116 1.14098
0.397017 -0.292361 1.05089
0.44299 -0.0491254 0.977344
0.46423 -0.189023 1.20818
0.407666 -0.276439 1.3796
0.416738 -0.284888 1.13019
0.264739 -0.254303 1.32565
-0.287702 -0.265988 1.28482
0.385755 -0.290332 1.40015
0.375759 -0.304149 1.11438
0.38402 -0.284069 1.12623
0.417343 -0.2628 1.17768
0.44421 -0.303485 1.46497
0.462053 -0.19256 1.2524
0.445767 -0.294696 1.44722
0.117543 -0.245226 1.27334
0.408076 -0.286413 1.41063
0.137157 -0.036733 0.915312
-0.545353 -0.218188 1.12833
-0.205052 -0.0563594 0.853106
0.177376 -0.023275 0.898663
0.0892394 -0.174757 0.995761
0.380335 -0.290313 1.06491
0.35157 -0.0714891 1.03583
-0.397629 -0.0852832 0.947629
-0.243186 -0.0384008 0.792435
-0.273403 0.308758 1.27668
0.250163 0.0733843 0.805953
0.201814 0.184574 0.963999
-0.409637 -0.106394 0.950732
0.446612 0.018097 1.03104
0.511617 0.150508 1.22255
0.24408 -0.207509 1.07339
0.0709276 -0.142682 1.03633
0.0961074 -0.0587997 0.944894
0.231648 0.11413 0.851424
0.2978 0.090293 0.876119
0.300875 -0.236998 1.07819
0.415484 -0.243073 1.05868
-0.22196 -0.304941 0.87927
-0.450344 -0.224988 0.964808
-0.530896 -0.0974153 1.22849
-0.525742 0.0567541 1.05996
0.151369 -0.0605249 0.922375
-0.367156 -0.2745 0.802253
0.241328 0.138078 0.879883
-0.0564531 -0.27839 1.00477
-0.367896 -0.251055 0.829822
-0.466312 -0.124315 1.0221
-0.396114 -0.301832 0.820492
-0.20747 -0.347602 0.877988
-0.251993 -0.338718 0.933207
-0.203989 -0.244838 0.929717
-0.272806 -0.0705468 0.830131
-0.266838 -0.368866 0.900566
-0.413548 -0.156589 1.08334
0.36053 -0.233383 1.01379
-0.101042 -0.0593424 0.925818
0.0437452 -0.0590605 0.948489
-0.115319 -0.0573651 0.933688
0.228693 0.294087 0.882455
0.36977 -0.173065 1.04605
0.444157 -0.0485874 0.995318
0.248 -0.0260776 0.80284
0.148159 -0.205072 1.058
0.261178 0.01894 0.773177
-0.44309 -0.290361 0.936656
0.274439 -0.458614 1.4925
-0.260829 0.165324 0.827469
-0.463495 -0.124584 0.982642
0.0446725 -0.313176 1.47557
-0.286383 0.242016 0.862013
-0.340482 -0.307225 1.14778
-0.454867 -0.132102 1.39178
-0.389623 -0.264348 1.04158
-0.317874 -0.105653 1.47414
-0.24292 -0.0660302 0.820888
-0.546746 -0.260806 1.12584
2.23804 0.831099 -0.0486427
0.0903276 -0.283344 1.37097
2.27459 0.910074 -0.114114
2.21264 0.952609 -0.0278513
1.94936 0.823062 0.0560228
0.2013 -0.34121 1.54283
0.20615 -0.371799 1.55324
0.310182 -0.399795 1.45552
-0.514653 -0.342073 1.15125
-0.531907 1.01366 -0.456457
-0.492938 1.01481 -0.499688
0.184956 -0.383975 1.57223
0.205852 -0.315452 1.5244
0.261161 -0.281499 1.50546
-0.288238 -0.125394 0.685766
-0.553295 -0.301865 1.17968
1.87291 -0.213217 1.32425
2.11334 -0.256445 1.8272
-0.54401 -0.253699 1.10874
0.153382 -0.316518 1.47032
-0.256226 -0.257405 1.26965
0.151379 -0.247957 1.27938
-0.502298 -0.257137 1.01711
0.154298 -0.277266 1.14807
0.234748 -0.108491 0.981384
0.406044 -0.282196 1.38485
0.0490837 -0.266504 1.09595
0.238549 -0.140286 1.64396
-0.0276474 -0.265548 1.2721
0.192198 -0.187446 1.20507
0.106937 -0.159937 1.15407
0.0486769 -0.205077 1.18511
0.0183303 -0.246901 1.27791
0.0282462 -0.227535 1.22725
-0.214 -0.283611 1.29084
0.279307 -0.404612 1.47704
0.279713 -0.404751 1.49637
-0.0952207 -0.258115 0.989543
-0.223677 -0.0610584 0.909554
0.122751 -0.324527 1.45042
0.187616 -0.361485 1.5928
-0.313062 0.0848807 0.857158
-0.43852 0.221033 0.941383
-0.555135 -0.183917 1.18421
-0.170956 -0.314402 1.20775
-0.496589 -0.311875 0.96624
-0.283738 -0.184377 1.46051
0.0689723 -0.290188 1.36867
-0.147503 0.107679 0.66712
-0.510236 -0.233148 1.00614
0.0679048 -0.290055 1.36888
0.235002 -0.0288117 0.916652
0.292727 -0.0165627 0.886617
-0.258928 -0.326051 0.899201
-0.486533 -0.0604165 1.10273
-0.485469 -0.0636092 1.09825
0.0534374 -0.236874 0.990793
-0.0226938 0.0881562 1.24484
-0.490423 0.12129 1.12492
-0.247847 -0.0602681 0.798853
0.135434 0.0424548 0.931023
-0.0174667 0.092409 1.2619
0.183737 0.211965 0.998058
-0.512194 -0.343227 1.01949
0.422166 -0.196177 1.06189
-0.0100682 -0.0834877 0.983752
0.0142638 -0.0557431 0.936628
0.382726 -0.0826987 0.963975
-0.209091 -0.336687 0.879168
0.294128 0.0831645 0.855854
-0.220968 -0.24461 0.923867
-0.0269841 -0.286307 0.990306
-0.273395 -0.0709374 0.813488
-0.417595 -0.257109 0.914772
-0.511731 -0.260467 1.03555
0.31523 0.0136035 0.815091
0.407455 -0.0717252 0.945438
-0.234875 -0.063062 0.919968
-0.236716 0.271978 1.06515
-0.454734 0.0143632 1.08418
0.319292 0.0650625 0.928222
0.229955 0.302768 0.900864
0.482517 -0.0437304 1.00824
0.14387 -0.196539 1.05194
-0.499898 0.022001 1.19023
0.130972 0.228114 1.0022
0.0770697 -0.13735 1.03946
-0.209982 -0.000434786 0.798699
-0.0356958 -0.313529 1.41697
-0.499721 -0.319894 0.952973
-0.404116 -0.28045 1.06553
-0.438001 -0.34181 1.01859
-0.394054 -0.29632 1.09863
-0.435271 -0.00115501 0.799423
-0.349349 -0.316536 1.1875
-0.40417 -0.280109 1.06505
-0.554853 -0.22019 1.1724
-0.550881 -0.305392 1.14203
-0.251747 -0.222589 1.22025
-0.55705 -0.181576 1.21337
-0.244585 -0.278479 0.917248
-0.605481 0.0221039 1.16764
-0.581716 0.0712428 1.15451
-0.238282 -0.174177 0.887674
-0.341031 -0.294274 0.806845
-0.278254 -0.312535 0.850182
0.105729 0.247479 0.964766
0.502641 0.23859 1.06762
0.348438 0.244504 0.972944
-0.413368 -0.337015 0.863142
0.0680764 0.166648 1.64302
0.0491312 -0.230798 0.973017
0.301099 -0.170132 1.09649
0.330927 -0.120025 1.07782
0.268574 -0.140855 1.10629
0.108338 -0.154447 1.0174
0.15103 -0.176847 1.06899
0.0149828 -0.0561016 0.938482
0.304915 -0.0380623 0.946137
0.0420066 -0.196185 1.03709
0.0921203 -0.175913 1.00274
0.174594 -0.0473316 0.900232
-0.0450079 -0.348437 0.902049
0.291878 -0.252166 1.06714
0.411769 -0.255249 1.03475
0.30202 0.0603275 0.891997
-0.379166 -0.366322 0.872965
-0.0053055 -0.131912 0.939899
0.0685025 -0.144883 1.02706
-0.546743 -0.131908 1.19737
-0.399022 -0.0895135 0.959558
-0.241805 -0.173269 0.892099
-0.456611 -0.114837 0.989532
-0.247517 -0.0120732 0.85648
0.30245 0.0882072 0.889475
-0.0319661 -0.0491027 0.915043
-0.0166934 -0.224397 0.894679
0.232357 -0.303107 1.47625
0.194803 -0.375542 1.56297
0.258109 -0.469936 1.56067
0.166873 -0.344209 1.56451
1.70101 -0.157855 1.63127
0.482846 -0.172563 1.19977
1.82432 -0.0571268 1.43712
1.73475 -0.149661 1.58676
0.177282 -0.312361 1.48829
-0.000599172 -0.19761 1.18904
-0.0269005 -0.310343 1.40335
-0.147334 -0.262128 1.30265
-0.010444 -0.263493 1.09007
-0.3898 -0.275575 1.22033
-0.314601 0.106395 0.660281
0.334242 -0.14202 1.07522
2.37662 -0.955176 2.84541
2.24486 -0.712201 2.96516
-0.428055 -0.320576 0.835663
-0.489018 0.0377627 1.10371
0.351516 -0.0657629 0.830933
-0.0306373 -0.273517 0.948937
-0.528622 -0.270955 1.0862
0.0199668 -0.0463461 0.918375
0.406563 -0.242033 1.04036
-0.257744 -0.364703 0.925874
0.488478 -0.260651 1.0916
-0.0118154 -0.225335 0.896745
0.000840385 0.0206068 1.14979
0.381191 -0.275447 1.00765
0.482354 -0.153412 1.12906
-0.208067 0.208109 0.9144
-0.0447244 -0.293811 0.92253
0.10441 0.252778 0.981591
-0.428942 -0.3165 1.36744
-0.306098 -0.283422 1.12952
-0.446628 -0.110299 1.35597
-0.529774 -0.260232 1.02515
-0.145412 -0.267203 1.29131
-0.112485 -0.211506 1.30692
0.264085 -0.493568 1.50104
0.267498 -0.417279 1.57054
0.255763 -0.405714 1.58703
0.247676 -0.451157 1.45872
0.19281 -0.355339 1.5656
0.255169 -0.446584 1.45958
0.272327 -0.499365 1.54984
0.295226 -0.448017 1.46463
-0.0435921 -0.0575813 0.938014
-0.416181 -0.129279 1.00707
-0.474614 -0.0720067 1.01164
-0.232879 -0.243213 0.921626
-0.468894 -0.120454 0.985596
-0.382011 -0.232809 1.47517
-0.437207 -0.33932 1.03423
-0.446131 -0.10008 1.35261
1.70809 -0.0072743 1.63933
0.420185 -0.2593 1.30054
0.149073 -0.317112 1.47112
0.436574 -0.254849 1.30629
0.428156 -0.188805 1.24741
-0.260537 -0.306228 0.936575
-0.44253 -0.279641 0.914682
-0.441432 0.227935 0.951023
0.152144 0.015054 0.745985
0.171149 -0.090974 0.979866
-0.266758 -0.0359415 0.790469
-0.197989 0.188649 0.698639
-0.266983 0.17929 0.664487
-0.293675 -0.274794 1.30124
-0.49615 -0.293101 1.07699
-0.338558 -0.267996 1.18016
-0.375885 -0.284162 1.19778
0.211315 -0.281652 1.60757
0.290206 -0.407845 1.48013
0.228028 -0.100744 1.6088
0.31323 -0.30908 1.21057
0.320782 -0.383449 1.49821
0.28104 -0.0654676 1.53287
0.260918 -0.0726922 1.56162
-0.0504704 -0.277194 1.28328
0.197139 -0.148491 1.65228
-0.0317428 -0.335311 1.05152
-0.542142 -0.319866 1.11716
-0.547554 -0.175697 1.15431
-0.555639 0.00821006 1.08619
0.368796 -0.221738 1.02912
-0.573085 0.0137723 1.11788
0.358176 -0.208854 1.04233
0.386435 -0.163005 1.03543
0.562287 -0.100557 1.17809
-0.199916 0.0360202 0.49346
-0.335342 -0.267167 0.820447
0.408562 -0.181162 1.05194
-0.165109 0.0834289 0.601862
-0.201775 0.20008 0.880636
-0.0496123 -0.292399 0.962254
0.234109 0.204548 1.03405
0.109809 -0.100208 1.08974
0.0392558 -0.194325 1.01759
0.449768 -0.294062 1.07708
-0.470424 0.0141891 1.09211
-0.313592 -0.234941 0.860299
0.234274 -0.157807 1.09804
0.153573 -0.197062 1.11603
-0.408377 0.0573224 0.755527
-0.529437 -0.180499 1.04557
-0.553134 -0.185865 1.18225
-0.418755 -0.361092 1.02608
-0.482667 -0.376762 1.1593
-0.530507 -0.267816 1.06487
-0.403236 -0.364638 0.943863
-0.361326 -0.246397 0.864183
-0.411407 -0.218646 0.931106
-0.295864 -0.0605555 0.834967
-0.468845 -0.170626 1.01244
-0.494351 -0.261574 1.0054
0.406453 -0.256833 1.31298
-0.189094 -0.319825 1.36088
0.128659 -0.221724 1.21863
-0.429053 0.0023395 0.798629
-0.47341 -0.312157 1.0887
-0.48153 -0.346675 1.1598
-0.495291 -0.31325 1.13499
-0.520429 -0.15358 1.02818
0.299408 -0.206463 1.07456
-0.287341 -0.298079 1.0134
0.0920517 -0.180874 0.990999
0.335012 -0.0186706 0.880034
0.419096 -0.281118 1.02154
-0.287351 -0.00158095 0.811802
0.423457 -0.0489005 0.948163
0.263653 0.112496 0.836347
-0.173799 0.0940725 0.641435
-0.027278 -0.359018 0.899095
0.273688 0.131268 0.863811
-0.0234026 -0.322576 0.949256
0.244138 -0.185668 1.075
0.103798 -0.117387 1.00993
0.51142 -0.198203 1.14971
0.304561 -0.168295 1.09692
-0.21488 -0.248568 0.928228
-0.245228 -0.0180086 0.802609
-0.295635 -0.260103 0.857921
-0.296543 0.161793 0.681502
0.395697 -0.0380923 0.95808
0.289932 -0.0791499 0.973625
-0.280593 -0.315041 0.860894
-0.386738 -0.227322 0.863197
-0.237835 -0.278711 0.923765
0.205166 -0.0531791 0.918968
-0.302431 0.254955 0.771499
0.141331 -0.013233 0.85779
-0.0102323 -0.226653 0.899179
0.463735 0.0199116 1.07092
0.308515 -0.197396 1.08632
0.501614 -0.268484 1.1159
0.353824 -0.248716 1.04442
0.239053 -0.210796 1.07518
-0.326178 -0.246144 0.866631
0.384065 -0.0702495 0.962641
0.313219 0.0633235 0.907269
-0.239832 -0.279464 0.924558
0.510588 -0.320958 1.07875
0.350092 -0.177933 1.0571
0.245509 0.15527 0.871573
0.307496 -0.0774499 0.996689
0.0896972 -0.0970134 0.996969
-0.548941 -0.00612069 1.22058
-0.427407 0.173679 1.09759
0.164259 0.00787267 0.774377
-0.464431 -0.0709157 1.00687
-0.263527 -0.295167 0.954486
0.151527 -0.198154 1.07125
0.0860181 -0.149961 0.993773
0.235122 -0.0303059 0.914474
-0.223355 -0.29795 0.877404
-0.0417605 -0.334476 0.922185
-0.0536867 -0.294663 0.89897
0.27711 -0.137089 1.09967
-0.168918 -0.176643 0.893515
-0.158456 -0.0720328 0.92778
0.273472 0.12678 0.856926
0.403033 -0.246806 1.28492
0.328641 -0.388092 1.49433
-0.0182216 -0.313313 1.34911
0.445098 -0.294643 1.45007
0.443145 -0.326628 1.48397
0.448883 -0.25868 1.40862
0.309052 -0.319314 1.47838
0.0414224 -0.236158 1.24345
0.32955 -0.390703 1.49329
0.304363 -0.237076 1.2342
0.306174 -0.344856 1.17027
0.443188 -0.325455 1.48505
0.326655 -0.355089 1.54491
0.303605 -0.251744 1.24681
0.0661278 -0.267215 1.10164
-0.0957764 -0.192678 1.20485
0.151786 -0.0567466 0.903194
0.319021 -0.175476 1.10378
0.0348926 -0.167463 1.03654
-0.394063 -0.235494 0.89758
-0.454816 -0.185727 0.985738
0.147346 -0.0439146 0.883717
-0.338369 -0.239959 0.846239
-0.293527 -0.260399 0.849942
0.033277 -0.165809 1.02836
0.244596 0.207149 0.987244
-0.387287 -0.228849 0.871563
-0.293114 0.250573 0.755892
-0.0666268 -0.00570689 0.840113
-0.260779 -0.270403 0.911133
0.132115 0.0389605 0.919938
-0.230073 0.253841 0.980236
-0.340568 -0.274723 0.689613
-0.0765905 -0.0117871 0.595756
0.0480084 -0.114823 1.04731
-0.0582393 -0.359715 0.951563
-0.0281118 -0.051428 0.922879
-0.215979 -0.246777 0.929504
-0.195525 0.211428 0.689212
-0.128026 -0.0172045 0.854761
0.291557 -0.0813715 0.976933
-0.287771 -0.277577 0.975566
-0.0707082 -0.297478 1.00153
0.165256 0.00180731 0.77379
-0.37458 -0.251247 0.834468
0.145101 0.19051 1.09598
0.0481953 0.233319 0.997755
0.241992 -0.186122 1.07433
-0.101538 -0.295387 1.36612
0.271367 -0.210238 1.22858
-0.14252 -0.268051 1.29596
0.161195 -0.239025 1.22142
-0.0610933 -0.313995 1.34962
-0.253487 -0.298265 1.30962
0.105787 -0.219406 1.235
0.408981 -0.204402 1.24714
-0.471635 -0.316395 1.09782
-0.407638 -0.237959 1.24035
-0.310368 -0.245104 1.24707
-0.499771 -0.322132 1.12594
-0.403574 -0.339061 1.16607
-0.536118 -0.195736 1.05488
-0.334263 0.300861 0.798081
0.371744 -0.0800817 0.940749
0.209199 0.0173723 0.72517
0.204317 0.294573 0.874751
-0.28531 -0.252081 0.892503
0.0537755 -0.220966 0.985707
0.0322287 -0.1482 1.02909
-0.547241 -0.200621 1.16845
-0.379294 -0.289663 1.3237
-0.333227 -0.39303 1.09582
-0.21683 -0.240157 1.25529
0.194785 -0.0453022 0.903016
0.447207 -0.0618106 0.983081
0.432631 -0.0497745 0.980805
-0.239485 -0.0073907 0.824539
0.128044 -0.100062 1.02261
0.170615 -0.0503354 0.902499
0.445548 -0.060331 0.977889
-0.241142 -0.173464 0.891115
0.244414 -0.217465 1.11498
-0.425991 -0.305924 1.37236
-0.286825 -0.275003 1.28869
0.0539565 0.823155 -0.222259
-0.399237 -0.294727 1.37857
-0.546692 -0.178969 1.15245
0.0598253 -0.203372 1.18928
-0.310044 -0.250053 1.2117
0.0651591 -0.0710419 1.48854
-0.32948 0.021836 0.602436
0.493926 0.235229 1.05423
-0.148904 -0.274263 1.28496
0.276343 -0.250897 1.33457
-0.050022 -0.289217 1.31762
0.0104266 -0.280218 1.31477
-0.28387 -0.326251 0.874808
-0.297246 -0.259188 0.844814
-0.387347 -0.284469 0.816381
-0.283031 -0.281212 0.932992
-0.214218 -0.271164 0.913856
-0.248556 -0.0598748 0.801843
-0.372246 -0.250534 0.833464
1.76153 -0.0566155 1.51906
-0.391255 -0.205923 0.865552
-0.272873 -0.0597203 0.793944
-0.226305 -0.244351 0.932078
0.326179 -0.155626 1.09448
1.77439 -0.312665 1.48437
1.68763 -0.10085 1.5048
-0.354853 -0.23885 0.838586
0.400579 -0.0688667 0.938321
-0.437456 -0.070583 0.918376
0.0568519 -0.234809 0.948631
-0.180968 -0.178031 0.881103
-0.415519 -0.344247 0.83599
-0.60472 -0.249387 1.21393
0.452017 -0.309158 1.12007
-0.0415987 -0.269202 1.26325
0.484819 -0.182995 1.15861
0.425879 -0.313454 1.11457
0.0938367 -0.098579 1.01991
0.0219786 0.230643 1.00535
-0.0646332 -0.33905 0.957587
-0.293583 -0.0690937 0.820456
0.0474223 -0.128051 0.991984
-0.241377 0.00214261 0.811224
0.169847 -0.0631891 0.918271
0.230856 -0.185486 1.06772
0.328862 -0.257408 1.0642
-0.2692 0.261992 0.743217
-0.429362 0.215614 0.921221
0.282643 0.0823329 0.840655
0.153949 0.167169 1.08728
0.375801 -0.0794714 0.944805
-0.437794 0.219148 0.929224
0.20832 -0.0215103 0.834754
-0.469729 -0.12742 1.06409
-0.295713 0.159186 0.660855
-0.224783 -0.317655 0.8983
0.3572 -0.200456 1.04532
0.241619 -0.186012 1.08258
0.255225 0.163286 0.919651
0.108682 -0.205999 1.06371
0.418496 -0.259919 1.05103
0.230022 0.108119 0.828985
0.14328 -0.0633993 0.923167
0.230367 0.231242 0.950341
-0.0219478 -0.287425 0.796148
0.353161 -0.121037 1.05625
-0.424749 0.0124353 0.968053
-0.198252 0.131075 0.679135
0.491149 -0.0653507 0.993106
-0.0276957 -0.318146 0.924788
0.0927279 -0.174671 1.00039
-0.10005 -0.293064 1.3075
0.0812792 -0.212994 1.22537
0.178975 -0.327994 1.56844
0.289001 -0.47864 1.48269
0.291653 -0.477753 1.4827
0.172349 -0.367935 1.58531
0.219757 -0.331649 1.46112
-0.0545251 -0.281325 1.01057
-0.0965271 -0.0663792 0.946971
-0.551609 -0.187327 1.15936
-0.41367 -0.259696 1.2522
0.142511 -0.339174 1.46663
0.337385 -0.320159 1.48705
0.214613 -0.402182 1.59978
0.192058 -0.393573 1.57514
0.246275 -0.446522 1.5488
0.246951 -0.431107 1.52947
0.308174 -0.444804 1.46672
0.238578 -0.443149 1.47353
0.222305 -0.417779 1.57136
0.249303 -0.307429 1.46557
-0.390653 -0.301991 1.10782
-0.512773 -0.339688 1.14991
-0.414441 -0.253823 1.29249
-0.0888485 -0.226753 1.21447
-0.325816 0.0114704 0.78773
0.159425 -0.0820806 0.930391
-0.340915 0.180584 0.683319
-0.225601 -0.0496812 0.812553
0.337275 -0.19258 1.0459
0.36392 -0.234379 1.01102
0.224063 -0.136152 1.09733
0.177239 -0.0290937 0.887223
0.321315 -0.156904 1.09184
-0.318167 0.244084 0.76055
-0.0498328 -0.308726 0.93268
0.340671 -0.219959 1.036
0.216788 0.0240817 0.755098
0.437048 -0.0472491 0.97573
-0.297988 -0.265497 0.865436
0.506469 -0.19741 1.14794
-0.365082 0.189273 0.735168
0.153845 -0.180432 1.0785
0.222917 0.0256932 0.773427
-0.236895 0.266104 1.02831
-0.296413 -0.256962 0.839939
0.150923 0.162149 1.07818
0.328174 -0.173617 1.08386
-0.251513 -0.0718846 0.819948
-0.534954 -0.274962 1.09809
-0.129926 0.273322 0.824914
-0.371906 -0.266711 0.806913
-0.053064 -0.386898 0.940176
0.0917293 -0.0168935 0.876288
-0.490194 0.1317 1.17848
0.221237 0.10939 0.948426
-0.443543 -0.306234 0.957603
-0.356919 0.23488 0.810263
-0.2429 -0.0900418 0.9065
-0.0409208 0.0767109 1.11736
-0.0103009 -0.0838399 0.983327
0.361697 -0.174619 1.04217
-0.517617 -0.257197 1.0289
-0.451715 -0.186948 0.965644
-0.119955 0.0586599 0.776658
0.0949654 -0.00414687 0.86099
0.365683 -0.113903 1.05021
0.316394 0.265193 0.980002
0.290971 -0.325245 1.46621
0.44001 -0.227802 1.28455
0.477683 -0.159151 1.16023
-0.322371 0.101305 0.667351
-0.443761 -0.305594 1.05429
-0.546279 -0.168071 1.14918
-0.345388 0.103047 0.713082
-0.552286 -0.182961 1.16959
-0.556227 -0.169679 1.21884
0.166809 -0.269094 1.59191
-0.196784 -0.323078 1.36042
0.11562 -0.324587 1.4484
-0.327764 -0.275805 1.29958
0.255515 -0.447684 1.4548
-0.335448 0.112426 0.68672
0.367551 -0.264868 0.988176
-0.128169 -0.0163679 0.853886
-0.118189 -0.0215028 0.878634
-0.0344521 -0.0439613 0.915919
0.354616 -0.103251 1.01818
0.300731 -0.262315 1.06048
0.0360473 -0.167559 1.03219
0.208129 0.233581 0.988549
-0.355727 -0.079766 0.946772
0.318822 -0.188111 1.07916
-0.355186 -0.239844 0.839585
-0.240836 -0.0182998 0.810076
-0.232265 -0.203259 1.18189
-0.273535 -0.251514 1.2608
-0.318947 -0.368525 1.10157
-0.282879 -0.268574 1.28357
-0.264451 -0.262241 1.26491
-0.243878 -0.27933 1.30914
-0.359961 -0.25411 1.21069
-0.245355 -0.228452 1.19032
-0.402896 -0.289396 1.21562
-0.335245 -0.280551 1.21528
0.0323974 -0.225511 1.22498
0.0298843 -0.227819 1.22508
-0.235414 -0.279831 1.31106
-0.267316 -0.254986 1.26269
-0.286109 -0.204841 1.17589
0.372108 -0.287765 1.05538
-0.282888 0.152617 0.656233
0.282758 0.0595078 0.843522
0.28555 -0.0253565 0.881436
0.378655 -0.288469 1.06078
0.068664 -0.0758922 0.814312
0.576792 -0.105314 1.22722
0.390441 -0.249495 0.976908
-0.0452289 -0.345651 0.904314
0.367944 -0.114502 1.05606
-0.0404922 -0.314585 0.927541
-0.441714 -0.0018175 0.799543
-0.237079 0.0990247 0.723535
0.109853 -0.239245 1.27741
-0.254596 -0.267725 1.29635
-0.430522 0.0103357 0.792685
-0.212047 0.21172 0.792701
0.27935 -0.33558 1.48129
0.538559 -0.190341 1.30786
-0.416471 -0.318852 1.13394
-0.351286 -0.267434 1.22641
0.256439 -0.486294 1.50082
0.295004 -0.493114 1.51081
0.29408 -0.491844 1.50476
0.272175 -0.48849 1.55108
0.279764 -0.508753 1.5491
0.268269 -0.478708 1.56431
0.262699 -0.488353 1.50432
0.1936 -0.37028 1.56085
0.268036 -0.480664 1.56246
0.245522 -0.457395 1.49762
0.265545 -0.470923 1.48444
0.296949 0.213066 0.888504
0.119995 -0.100011 1.01719
-0.0497006 -0.2836 0.937117
0.24133 0.103599 0.810328
-0.504778 -0.183025 1.07486
0.13427 -0.0496452 0.935546
0.105747 0.2565 1.04545
0.104944 0.257848 1.04127
-0.000238942 -0.199487 0.91832
-0.115206 -0.0582494 0.890865
-0.393575 -0.277417 0.788004
-0.35933 -0.0902075 0.908453
-0.2395 -0.0595539 0.923956
-0.0261729 -0.368733 0.920328
0.309562 -0.134297 1.05071
0.471572 -0.0786873 1.04672
0.347737 -0.175964 1.05353
0.449471 -0.136035 1.09079
0.399042 -0.255161 1.0644
-0.0740392 -0.0105756 0.861928
0.646437 -0.150864 1.66075
-0.232572 -0.0593736 0.862717
-0.0969746 -0.304096 1.32564
-0.0268304 -0.312063 1.35477
-0.0505253 -0.277146 1.28211
0.0938418 -0.184107 1.17549
0.135592 -0.257683 1.31211
0.141604 -0.0886091 1.56933
0.281525 -0.2651 1.35615
-0.197242 -0.305707 1.36865
-0.170079 -0.312701 1.36338
0.220211 -0.26654 1.35345
0.278762 -0.257487 1.33225
0.219472 -0.266407 1.35358
0.165315 -0.251805 1.27851
0.413523 -0.221505 1.2959
0.27477 -0.258596 1.33231
0.281908 -0.245431 1.2892
0.411753 -0.220269 1.29486
0.393357 -0.19414 1.04363
-0.273379 -0.30436 0.83108
0.144962 -0.203187 1.05074
0.251002 -0.162356 1.60861
-0.25996 -0.364934 0.923752
0.386795 -0.293294 1.08246
0.163499 0.0336404 0.788803
0.231176 0.120072 0.925928
-0.443774 -0.283086 0.929338
0.483115 -0.191714 1.11669
-0.425521 -0.351652 0.858514
-0.550862 -0.317865 1.19164
0.148803 -0.312184 1.52765
-0.425556 -0.316028 1.36855
-0.509941 -0.291432 1.07103
0.238629 -0.209307 1.18142
0.330817 -0.0702903 0.959198
0.0644938 -0.287805 1.36797
0.478741 -0.198798 1.26651
0.230486 -0.207347 1.18128
-0.259945 -0.0129274 0.905505
-0.0600845 -0.0454637 0.907815
-0.0923686 -0.0374937 0.893962
-0.029746 -0.272073 0.949578
-0.249591 -0.178031 0.888377
-0.461418 -0.181449 0.98668
-0.253625 -0.0719252 0.823886
-0.532915 -0.267624 1.06804
-0.226358 -0.314556 0.910657
-0.472734 -0.185501 1.0077
-0.44567 -0.288343 1.0564
-0.524472 -0.29138 1.09523
-0.397229 -0.317536 1.12073
-0.30538 0.415231 0.727921
0.406439 -0.180102 1.0512
0.0361104 -0.236648 1.23925
0.0183532 -0.248237 1.27756
0.107855 -0.233246 1.27984
-0.108088 -0.271189 1.27582
-0.098605 -0.29772 1.31478
-0.197785 -0.306515 1.36805
-0.191908 -0.31691 1.35909
0.418355 -0.134307 1.00234
0.466741 -0.0579235 1.4444
0.240653 0.280043 0.888991
-0.0478632 -0.241122 1.27124
0.263972 -0.0722693 1.55603
0.261345 -0.141907 1.10007
-0.0252664 -0.333509 0.924505
0.376904 -0.0801253 0.9432
0.462756 -0.0664586 1.00966
0.417077 -0.170038 1.07261
-0.395988 -0.116866 0.939347
0.0467721 -0.230996 0.968162
0.362868 -0.150837 1.06525
-0.510326 -0.189803 1.08996
-0.601317 0.0210926 1.15571
-0.172238 -0.0663878 0.925225
-0.426435 0.228663 0.957963
-0.0869925 -0.00977327 0.85237
0.220499 -0.149919 1.1259
-0.297056 -0.0343452 0.83535
0.150059 0.177194 1.10014
-0.426118 -0.405017 1.27226
0.370415 -0.139542 1.05003
2.63475 -1.232 5.17433
0.146643 0.181393 1.10622
0.218063 -0.150098 1.08974
0.0849693 -0.161495 1.06094
0.470491 0.021075 1.0819
-0.305387 0.10287 1.25738
0.356972 -0.155756 1.03729
-0.478419 0.148012 1.17217
-0.132343 0.286342 0.796994
0.31472 0.250555 0.989702
-0.490435 0.0887063 1.14699
-0.510498 -0.328281 1.02916
-0.516839 -0.0882653 1.15438
-0.550089 -0.0126146 1.21806
-0.50516 0.153462 1.34485
-0.485875 0.0273073 1.1293
0.430805 -0.18516 1.09651
-0.197271 -0.321216 0.876821
0.416465 -0.283428 1.01769
0.233556 0.121708 0.909769
0.161058 -0.0605355 0.916921
-0.197163 0.211444 0.669864
0.117906 -0.129498 1.03437
-0.223537 -0.304787 0.867021
-0.441735 0.226455 0.949711
-0.442892 -0.00102875 0.834504
0.0976895 -0.0348788 0.885245
0.443064 -0.143098 1.08148
0.115535 -0.0636963 0.925783
0.302616 -0.218295 0.788007
0.294934 -0.00688953 0.876688
-0.297316 -0.0553115 0.82166
-0.326764 -0.283926 0.792259
-0.228061 -0.244193 0.929703
2.3601 -0.442186 2.4506
0.366989 -0.170188 1.0464
0.0972902 -0.221556 1.07164
0.306283 -0.322898 1.48502
0.201268 -0.320636 1.52526
-0.419817 0.00299058 0.85945
-0.554159 -0.253717 1.12141
-0.462977 -0.339321 1.13096
0.245333 -0.28344 1.64706
-0.150208 -0.0307089 0.858767
-0.550125 -0.18196 1.16893
-0.549911 -0.246472 1.14679
-0.548454 -0.244608 1.16449
0.319664 -0.511167 1.53955
-0.0767029 -0.245427 1.18968
-0.477847 -0.31057 1.08831
-0.277741 -0.261656 1.26234
-0.424687 -0.285128 1.36171
-0.557502 0.0309506 1.15993
-0.0654198 -0.240268 1.18771
-0.343566 -0.251087 1.23006
-0.480317 -0.315021 1.09166
-0.512038 -0.288945 1.04308
-0.314573 -0.255732 1.27041
-0.391248 -0.368316 1.03372
-0.466587 0.136958 1.12887
-0.366559 0.260372 0.885925
-0.502359 -0.31635 1.01016
0.0865952 -0.200198 1.02375
-0.384382 -0.247946 0.829476
-0.486246 0.0285747 1.06802
0.219889 0.279685 0.906805
0.132739 -0.00281102 0.853339
-0.242472 -0.171589 0.873327
-0.0375607 -0.289656 1.04206
-0.531525 -0.00683997 1.15165
-0.339027 -0.240133 0.84528
-0.289371 -0.0244656 0.826543
-0.29438 -0.0257027 0.817099
0.237934 0.153414 0.864309
-0.293814 0.122516 0.837136
-0.492824 -0.325537 0.947801
-0.435525 -0.342807 1.03294
-0.464762 -0.0994475 0.987483
-0.488372 -0.0301087 1.04981
-0.17311 0.176635 0.676412
0.439477 -0.266326 1.21911
-0.525882 -0.256011 1.02041
-0.386028 -0.289641 1.37477
-0.545083 -0.282131 1.11071
0.370754 -0.295842 1.39563
-0.343045 -0.252393 1.22875
-0.442206 -0.126497 1.40144
-0.591733 0.0382674 1.14316
-0.555082 -0.188008 1.20655
-0.536324 -0.314475 1.11376
-0.107527 -0.272563 1.27639
-0.520566 -0.0186889 1.12451
-0.398461 -0.112128 1.40774
-0.396783 -0.110588 1.40799
-0.508375 -0.266884 1.02411
-0.508213 -0.265777 1.02415
0.190666 -0.394609 1.57456
0.238688 -0.452937 1.47546
0.286696 -0.504771 1.55524
0.2715 -0.488437 1.55076
0.281611 -0.309654 1.48819
0.247619 -0.44577 1.45671
0.248586 -0.437344 1.49964
0.248406 -0.485689 1.5201
-0.331768 0.232692 0.861602
-0.0828836 -0.242914 1.25117
-0.180691 -0.236285 1.19634
-0.398476 -0.117228 1.40232
-0.44138 -0.318979 1.10593
-0.508936 -0.291279 1.08311
-0.468613 -0.338321 1.1649
-0.776009 0.890856 -0.241472
-0.446423 -0.314228 1.0623
-0.384681 -0.307637 1.12355
-0.41267 -0.319815 1.07299
-0.287169 1.01597 -0.413015
-0.531217 -0.262204 1.02549
-0.366493 -0.256698 1.50302
-0.277996 -0.276786 1.2953
0.0939245 -0.202754 1.03338
0.312728 -0.0812146 1.0047
-0.259854 -0.278674 1.30892
-0.333261 -0.274311 1.21609
-0.216664 -0.262717 1.27636
-0.466671 -0.320044 1.14416
-0.268644 -0.269594 1.18648
-0.141607 -0.238676 1.27135
0.401266 -0.243057 1.1648
-0.343199 -0.206433 1.14995
0.436387 -0.2579 1.41282
0.411918 -0.293181 1.40456
0.461376 -0.210994 1.31578
0.159029 -0.34509 1.14785
-0.496507 0.131405 1.16854
0.0884203 -0.202878 1.01867
0.113803 -0.0645175 0.906624
0.102774 -0.033657 0.890839
-0.0262792 -0.0786344 0.953978
-0.442269 -0.291257 0.931976
0.32818 -0.0329523 0.876401
0.334789 0.270861 0.987161
0.0479 -0.230707 0.972081
0.125968 -0.0596077 0.924544
-0.0475422 -0.249663 0.918574
1.83725 -0.380485 1.56974
-0.550763 -0.230869 1.15651
-0.209307 0.24549 0.931141
0.605318 -0.266493 1.58088
0.0211046 -0.197541 1.17583
-0.152259 -0.210439 1.2108
0.0614672 -0.216468 1.2158
0.0878025 -0.2078 1.20254
-0.386879 -0.271839 1.04845
-0.320353 -0.2667 1.18949
-0.248209 -0.261465 1.26994
-0.393217 -0.322364 1.11875
-0.491284 0.134244 1.21805
-0.36795 0.055094 0.691441
-0.364547 0.258052 0.88449
0.0786418 0.157348 1.132
0.311931 -0.0196406 0.792421
-0.198135 -0.255647 0.94641
0.100403 0.228101 0.962325
0.00896111 0.232472 1.00234
0.27561 -0.165173 1.09225
0.496626 -0.245692 1.12941
-0.470125 -0.169174 1.03966
-0.0751662 -0.200238 1.18706
-0.211879 -0.363311 1.08066
-0.204082 -0.359752 1.07713
-0.21022 -0.363302 1.07988
-0.212997 -0.36452 1.08147
0.0024534 -0.105035 0.981211
-0.236213 -0.0857789 0.91494
-0.0639796 -0.304054 0.984946
-0.44427 -0.327852 1.09606
-0.362864 0.300059 0.783959
-0.0794444 -0.30602 1.32642
-0.142895 -0.270266 1.31307
-0.10078 -0.294302 1.36635
-0.162125 -0.267445 1.31036
0.109699 -0.23735 1.27623
1.64562 0.255687 1.13988
1.64518 0.258831 1.13991
1.77112 0.200958 0.977096
0.259601 -0.293367 1.46694
1.66671 0.18835 1.06691
1.90526 0.0825009 1.29441
2.03319 0.0358292 1.36573
1.83182 0.0725272 1.20009
1.76593 -0.161266 1.66087
0.0778325 -0.146023 1.03769
-0.290154 -0.0190808 0.808125
-0.252858 -0.175043 0.885005
0.222679 0.260447 0.944239
-0.323989 -0.239031 0.842573
0.426226 -0.127204 1.0726
-0.266411 -0.0901494 0.909418
-0.0282261 -0.327593 0.919431
-0.174853 -0.274746 1.2968
-0.248301 -0.269967 1.2872
-0.285218 -0.272954 1.29908
-0.264891 -0.25461 1.28086
-0.170682 -0.269649 1.29628
-0.212612 -0.0621582 0.919016
-0.0534697 -0.0376619 0.906335
-0.0487129 -0.0571102 0.935283
0.0514489 -0.128397 1.02381
0.0436532 -0.205765 1.06959
0.172566 -0.0622746 0.963657
0.167074 -0.0577155 1.00781
-0.0567961 -0.151824 1.14598
0.133482 -0.237169 1.30829
0.225891 -0.212686 1.10249
-0.399073 -0.125689 0.945583
-0.394811 -0.267203 1.48819
-0.455587 -0.165407 1.43434
0.357555 -0.284327 1.12096
0.358786 -0.310991 1.10754
0.35618 -0.284106 1.12099
0.334526 -0.365708 1.19342
0.090775 -0.214237 1.22347
0.116264 -0.250391 1.30014
0.118281 -0.231577 1.26585
0.0520142 -0.19776 1.18103
0.0161298 -0.23408 1.28242
1.73011 -0.162085 1.13351
-0.403172 -0.102932 1.37477
0.0693212 -0.287023 1.37189
0.00685071 -0.276068 1.31789
-0.0604635 -0.3119 1.34813
-0.0994178 -0.303535 1.36051
0.00187445 -0.200023 1.16992
-0.273604 -0.170468 1.16238
-0.166215 -0.284656 1.32701
0.00595291 -0.195405 1.16819
-0.106939 -0.268822 1.27462
-0.522361 -0.0486773 1.13897
-0.538221 -0.258482 1.02923
-0.548462 -0.17049 1.15123
-0.268706 0.195716 0.830079
2.11341 -0.197711 1.34925
-0.483107 -0.18328 1.01681
-0.10374 -0.316702 1.35075
1.82455 -0.164454 1.70044
-0.154127 -0.285809 1.33167
-0.560808 -0.207439 1.17333
0.446683 -0.324489 1.48312
-0.368056 -0.287666 1.32497
-0.15254 -0.208078 1.18515
-0.413942 -0.256185 1.25098
-0.596863 0.012142 1.12516
-0.38588 -0.296487 1.32361
-0.548429 -0.18826 1.15284
-0.413794 -0.256726 1.27809
-0.069533 -0.235403 1.25202
-0.337974 -0.309351 1.18735
-0.431219 -0.00840892 0.874231
-0.549277 -0.178566 1.1678
-0.495221 -0.332875 1.13189
-0.441559 -0.343072 1.17483
-0.139254 0.0502591 0.732693
-0.220122 -0.332493 0.88257
-0.47557 -0.333697 1.13855
-0.288118 -0.27928 1.29955
-0.430103 -0.295195 1.07396
-0.260313 -0.233829 1.25797
-0.469496 -0.307885 1.09104
-0.413818 -0.328274 1.09314
-0.359194 -0.245869 1.21002
-0.425613 -0.284794 1.0662
-0.456766 -0.331923 1.11404
-0.471036 -0.312486 1.0935
-0.277978 -0.26575 1.26347
-0.381294 -0.257536 1.04072
-0.369089 -0.263095 1.21596
-0.477909 -0.333399 1.152
0.176282 -0.371434 1.57492
0.178312 -0.377422 1.58715
0.182971 -0.370911 1.59189
-0.137198 0.0517297 0.741481
-0.0010378 -0.095112 0.984932
-0.261051 -0.0644334 0.804485
-0.353945 0.312699 0.774446
-0.265732 -0.0362307 0.785584
-0.227348 -0.0472655 0.803692
-0.0584656 -0.277724 1.00166
-0.297547 -0.0348114 0.833678
-0.46742 0.136233 1.12652
-0.566623 0.0774283 1.13977
-0.0395101 -0.304661 0.953637
0.0437974 0.141843 1.14733
0.372318 -0.162697 1.05133
-0.578623 0.0679247 1.13362
0.352285 -0.0945567 1.03485
0.096955 -0.0596601 0.947521
-1.34365 -0.950727 2.89009
-0.246453 -0.0611172 0.805646
-0.211123 -0.213318 1.21432
-0.401652 -0.319555 1.20164
0.0289049 -0.179167 1.16398
-0.174366 -0.213212 1.19534
-0.297528 -0.268524 1.27509
-0.359404 -0.27436 1.21396
-0.337651 -0.240782 1.15903
-0.347109 -0.273897 1.19184
-0.338317 -0.241809 1.15768
-0.287295 -0.276955 1.30466
-0.55826 -0.166835 1.16305
-0.511132 -0.148743 1.05187
0.190176 0.0201253 0.878657
-0.203056 -0.282268 0.905884
-0.38285 -0.247788 0.827611
-0.0713413 -0.296123 0.998229
-0.29513 -0.055822 0.82497
-0.296977 -0.0347469 0.835321
0.099416 -0.111253 1.0164
-0.578606 0.0454675 1.13464
-0.496566 -0.313118 0.948542
-0.470921 -0.321608 1.10305
0.250482 -0.464391 1.51213
0.249446 -0.48565 1.52297
0.291947 -0.513219 1.52711
0.254307 -0.485076 1.55364
0.210508 -0.324961 1.49237
0.271803 -0.512949 1.54676
0.243662 -0.461693 1.45237
0.254364 -0.478767 1.51577
0.271455 -0.424581 1.59282
0.24603 -0.421462 1.56164
-0.010964 -0.264103 1.08809
0.0291053 -0.2278 1.0896
0.0971227 -0.182543 1.17578
0.155733 -0.211269 1.19705
0.439877 -0.220646 1.23306
0.223068 0.126807 0.920634
-0.325704 -0.173919 1.11127
-0.344461 -0.278165 1.21909
-0.321184 -0.158377 1.10447
-0.236255 -0.280767 1.31127
-0.287943 -0.277059 1.30458
-0.24423 -0.272545 1.28113
-0.219676 -0.25575 1.31306
0.427418 -0.286669 1.40551
0.16736 -0.337861 1.49416
-0.479775 -0.271831 0.98135
-0.549398 -0.214813 1.1602
-0.290277 0.266955 0.838502
-0.0595383 -0.0262626 0.891399
-0.117209 -0.0314387 0.884928
-0.045969 -0.0509026 0.930484
-0.0985176 -0.0221951 0.881357
-0.0967484 -0.0575639 0.936821
-0.244184 -0.0603054 0.812665
-0.21271 -0.272798 0.879004
-0.263886 -0.0359159 0.801193
-0.335176 -0.231866 1.15413
-0.348849 -0.280218 1.1945
0.418841 -0.242285 1.27963
0.297733 -0.256752 1.24708
0.455587 -0.284847 1.13605
0.252763 -0.32372 1.46191
0.129831 -0.221567 1.21909
0.472746 -0.166971 1.20542
0.195975 -0.168589 1.58896
0.415119 -0.258712 1.17591
0.361118 -0.27901 1.12042
-0.403673 -0.0852351 0.939224
-0.560978 -0.155961 1.11145
-0.298183 0.11754 0.838468
-0.479346 -0.011958 1.05055
-0.525143 -0.261403 1.02115
-0.551759 -0.345634 1.16779
0.100602 -0.17939 1.02645
-0.354679 0.109408 0.760453
0.0215472 0.229128 1.00088
-0.353932 0.104581 0.73845
0.0576256 -0.146066 1.00663
0.120407 -0.0404339 0.905882
-0.148976 -0.206012 1.2034
-0.0364093 -0.318527 1.41968
-0.0471572 -0.332721 1.41989
-0.276882 0.0809753 0.756913
0.456993 -0.320133 1.47623
-0.268371 0.117319 0.722902
0.529093 -0.0332135 1.42035
0.477355 -0.198587 1.26697
0.476815 -0.158325 1.24096
0.510963 -0.0297127 1.32811
0.464892 0.0670813 1.35839
0.250993 0.158409 0.956221
0.272638 -0.247165 1.28912
-0.526305 -0.257522 1.02449
-0.491343 -0.325484 0.947508
-0.517735 -0.158842 1.05222
-0.565198 -0.240073 1.15587
-0.48553 -0.347798 1.14812
-0.0830244 -0.220819 1.2075
-0.119071 -0.303919 1.33355
0.266338 -0.0770868 1.52692
-0.165055 -0.31952 1.40635
0.204467 -0.140301 1.65067
-0.0524081 -0.30985 1.12826
0.250885 -0.0826585 1.56024
1.75844 0.0967405 1.14488
1.9062 0.035248 1.27503
0.47585 -0.148524 1.11715
0.263375 -0.48975 1.54298
1.7227 -0.149592 1.63117
0.352716 -0.32878 1.40342
0.408049 -0.28828 1.41432
0.224174 -0.318658 1.50696
0.255354 -0.463173 1.48799
-0.516932 -0.18612 1.03437
-0.43939 0.213124 0.948015
-0.496421 -0.328712 0.950614
-0.197412 -0.262827 1.13229
-0.511425 -0.329858 1.10134
-0.45617 -0.0853653 1.25975
-0.489953 -0.330938 1.12244
-0.0413793 -0.326107 1.42684
-0.461003 -0.13549 1.38729
-0.101879 -0.317335 1.41509
0.289003 -0.308322 1.48449
0.205809 -0.215928 1.24523
0.223376 -0.192422 1.59725
0.450016 -0.307495 1.456
0.465968 -0.202209 1.30652
-0.451058 -0.271953 0.900662
-0.512635 -0.316794 1.11645
-0.510458 -0.333665 1.15133
-0.342073 -0.314171 1.19043
-0.549554 -0.344437 1.16945
-0.40569 -0.320404 1.11567
-0.359179 -0.257015 1.22612
-0.774182 0.784929 -0.268015
-0.536446 0.863818 -0.286708
-0.450338 -0.346025 1.17832
-0.595291 0.0342573 1.13754
-0.217639 1.20188 -0.629502
-0.505481 0.921926 -0.563336
-0.505044 -0.33445 1.12803
-0.259801 -0.0455183 0.848897
1.23066 0.892049 -0.157436
0.400319 -0.302311 1.41002
-0.484389 -0.282964 0.97019
0.245281 -0.434939 1.46424
0.309915 -0.292918 1.48979
0.208814 -0.33201 1.5182
0.239097 -0.455389 1.49602
0.31215 -0.311284 1.46935
0.256174 -0.458211 1.49046
0.269537 -0.407326 1.51287
0.269582 -0.293991 1.49337
0.297845 -0.339133 1.49352
0.322118 -0.312837 1.47967
-0.124102 -0.265913 1.30418
-0.164347 -0.30008 1.33436
-0.216497 -0.239644 1.18151
-0.301022 -0.276059 1.28889
-0.341502 -0.263656 1.22378
-0.152009 -0.284358 1.3343
-0.156915 -0.287182 1.31969
-0.31478 -0.258649 1.24601
0.342263 -0.242022 1.03735
-0.490068 0.0903996 1.13873
-0.24316 -0.292892 0.9705
-0.44781 -0.316727 0.988867
-0.270599 -0.0583768 0.791724
0.112199 -0.053827 0.935801
-0.449107 -0.323348 1.00986
-0.0522933 -0.279506 0.927842
0.163149 -0.0846944 0.96559
0.23086 0.120249 0.92378
0.426953 -0.123753 1.07107
0.333024 0.0865692 0.909467
-0.394582 -0.262897 0.929287
-0.29049 -0.042094 0.798999
-0.254571 -0.0719963 0.820557
2.04898 -0.368366 1.69534
1.77669 -0.0870643 1.60867
-0.53494 -0.259402 1.05457
-0.414936 0.15932 1.05729
-0.36323 0.058407 0.711929
-0.297516 0.0896709 0.867946
-0.557641 -0.181573 1.21644
-0.499284 -0.130841 1.0601
-0.550497 -0.328643 1.13057
0.0328703 -0.248446 1.28262
-0.192637 -0.320587 1.36268
-0.322792 -0.276047 1.29966
-0.213509 -0.256152 1.2742
0.0855778 -0.212068 1.21628
-0.0974265 -0.300794 1.32218
-0.0985717 -0.296495 1.31428
0.0381154 -0.193558 1.16923
-0.0827015 -0.305947 1.31389
-0.15313 -0.21332 1.21279
0.185453 -0.217166 1.22212
0.067243 -0.183976 1.15946
-0.191858 -0.316493 1.3591
0.0568373 -0.268745 1.336
-0.0600451 -0.31483 1.35054
-0.359025 -0.256129 1.22548
-0.243639 -0.279366 1.30893
-0.0834703 -0.190688 1.18611
0.0559037 -0.268313 1.33652
-0.1077 -0.270999 1.27559
-0.0656822 -0.25297 1.19737
-0.0837023 -0.212542 1.18934
-0.281469 -0.191778 1.16875
-0.079093 -0.303163 1.31388
-0.287294 -0.206729 1.18283
-0.26061 -0.277535 1.30962
0.0972826 -0.205734 1.13635
0.0409133 -0.19782 1.16459
0.115351 -0.237293 1.26829
-0.0733381 -0.29126 1.30787
-0.344891 0.0738689 0.691058
0.229775 0.175678 0.953974
0.420037 -0.07782 1.61888
0.541173 -0.0813585 1.41568
-0.38858 -0.355432 0.870782
-0.478622 0.0320712 1.07065
-0.439994 0.216428 0.944543
0.176131 0.210333 0.995219
1.85307 -0.38564 1.56377
2.20206 1.08796 -0.370137
1.92986 -0.38462 1.62887
1.17336 0.746445 0.0151987
1.75604 0.8925 -0.1845
0.087415 -0.217037 1.22363
-0.075213 -0.294021 1.16648
-0.0961928 -0.248238 1.26087
-0.0824241 -0.219727 1.20834
-0.319869 -0.151714 1.10131
-0.161478 -0.264937 1.20633
-0.235974 -0.279762 1.31127
-0.282525 -0.196801 1.17288
-0.321305 -0.159611 1.10518
-0.30967 -0.207578 0.720179
-0.211379 -0.249011 0.935553
-0.0981022 -0.0343707 0.882235
0.502214 -0.0774898 1.42547
0.200878 -0.102694 1.60161
0.331782 -0.275861 1.0947
0.133339 0.204017 1.08106
0.365172 -0.0420454 0.928525
0.276231 -0.252482 1.5994
-0.154794 -0.114724 0.919614
0.396581 -0.28672 1.0797
0.493932 -0.0468825 1.0911
-0.361093 -0.269036 1.1921
-0.40923 -0.271246 1.10207
-0.520329 0.0229434 1.08537
-0.448425 -0.325784 1.11032
-0.393418 -0.315487 1.30855
-0.448991 -0.225896 0.948756
-0.352954 0.0131469 0.790504
0.0107083 -0.100144 1.01496
-0.391063 -0.230894 0.876315
-0.0598685 -0.0595627 0.92325
-0.327261 -0.245471 0.866464
-0.0710329 -0.0296484 0.885798
-0.262231 -0.0154928 0.808025
-0.260958 -0.33993 0.939366
-0.322575 -0.241538 0.854718
-0.0602461 -0.0470284 0.912298
0.458738 -0.202993 1.31895
0.146056 -0.248392 1.27204
0.409422 -0.252126 1.31379
0.236185 -0.232946 1.20294
0.448165 -0.205559 1.27395
0.460713 -0.0768856 1.42735
-0.522607 0.0864003 1.07265
0.335624 -0.400083 1.50825
-0.193154 0.143405 0.695816
-0.286172 0.101741 0.861931
-0.519835 -0.190743 1.03397
1.73271 -0.279399 1.48506
0.449603 -0.225035 1.31227
